ply
format ascii 1.0
comment Created by Open3D
element vertex 3137
property double x
property double y
property double z
end_header
84 133 50.6911
85 133 49.8915
86 133 49.1361
87 133 48.0446
88 133 46.0949
89 133 44.4606
90 133 41.3232
91 133 37.8411
92 133 32.8929
93 133 -3.14258
94 133 -3.14258
95 133 -3.14258
96 133 -3.14258
97 133 -3.14258
98 133 -3.14258
99 133 -3.14258
100 133 -3.14258
101 133 -3.14258
102 133 -3.14258
103 133 -3.14258
104 133 -3.14258
105 133 -3.14258
106 133 -3.14258
107 133 -3.14258
108 133 -3.14258
109 133 -3.14258
110 133 -3.14258
111 133 -3.14258
112 133 -3.14258
113 133 -3.14258
114 133 -3.14258
115 133 -3.14258
116 133 -3.14258
117 133 -3.14258
118 133 -3.14258
119 133 -3.14258
0 134 -3.14258
1 134 -3.14258
2 134 -3.14258
3 134 -3.14258
4 134 -3.14258
5 134 -3.14258
6 134 -3.14258
7 134 -3.14258
8 134 -3.14258
9 134 -3.14258
10 134 -3.14258
11 134 -3.14258
12 134 -3.14258
13 134 -3.14258
14 134 -3.14258
15 134 -3.14258
16 134 -3.14258
17 134 -3.14258
18 134 -3.14258
19 134 -3.14258
20 134 -3.14258
21 134 25.524
22 134 30.0232
23 134 31.482
24 134 31.7124
25 134 32.8066
26 134 33.4252
27 134 34.1469
28 134 35.3498
29 134 36.5654
30 134 37.9846
31 134 39.9084
32 134 42.1715
33 134 44.5838
34 134 46.4521
35 134 48.1319
36 134 49.6707
37 134 51.1133
38 134 52.4502
39 134 53.2829
40 134 53.799
41 134 54.4408
42 134 54.9665
43 134 55.4869
44 134 56.0023
45 134 56.4194
46 134 56.7564
47 134 56.958
48 134 57.0868
49 134 57.1943
50 134 57.2845
51 134 57.3572
52 134 57.3342
53 134 57.2977
54 134 57.2843
55 134 57.2464
56 134 57.1419
57 134 56.9969
58 134 56.7928
59 134 56.274
60 134 55.6574
61 134 55.1253
62 134 54.7229
63 134 54.5255
64 134 54.3484
65 134 54.2664
66 134 54.264
67 134 54.2123
68 134 54.2171
69 134 54.2448
70 134 54.2439
71 134 54.0738
72 134 54.0664
73 134 53.8305
74 134 53.5376
75 134 53.3712
76 134 53.0715
77 134 52.8423
78 134 52.7315
79 134 52.6222
80 134 52.4899
81 134 52.224
82 134 51.9429
83 134 51.4358
84 134 50.9841
85 134 50.2579
86 134 49.3701
87 134 48.3028
88 134 47.0907
89 134 45.4677
90 134 41.3349
91 134 36.5979
92 134 27.4481
93 134 -3.14258
94 134 -3.14258
95 134 -3.14258
96 134 -3.14258
97 134 -3.14258
98 134 -3.14258
99 134 -3.14258
100 134 -3.14258
101 134 -3.14258
102 134 -3.14258
103 134 -3.14258
104 134 -3.14258
105 134 -3.14258
106 134 -3.14258
107 134 -3.14258
108 134 -3.14258
109 134 -3.14258
110 134 -3.14258
111 134 -3.14258
112 134 -3.14258
113 134 -3.14258
114 134 -3.14258
115 134 -3.14258
116 134 -3.14258
117 134 -3.14258
118 134 -3.14258
119 134 -3.14258
0 135 -3.14258
1 135 -3.14258
2 135 -3.14258
3 135 -3.14258
4 135 -3.14258
5 135 -3.14258
6 135 -3.14258
7 135 -3.14258
8 135 -3.14258
9 135 -3.14258
10 135 -3.14258
11 135 -3.14258
12 135 -3.14258
13 135 -3.14258
14 135 -3.14258
15 135 -3.14258
16 135 -3.14258
17 135 -3.14258
18 135 -3.14258
19 135 -3.14258
20 135 26.4401
21 135 29.2165
22 135 31.4162
23 135 32.2738
24 135 33.1789
25 135 33.7597
26 135 34.5062
27 135 35.2752
28 135 36.0155
29 135 37.2229
30 135 38.81
31 135 40.4334
32 135 42.1899
33 135 44.0136
34 135 46.2544
35 135 47.9218
36 135 49.6856
37 135 51.1398
38 135 52.4503
39 135 53.1808
40 135 53.6554
41 135 54.26
42 135 54.7676
43 135 55.2602
44 135 55.7165
45 135 56.1043
46 135 56.4287
47 135 56.7349
48 135 56.938
49 135 57.0637
50 135 57.1577
51 135 57.2209
52 135 57.2384
53 135 57.2181
54 135 57.1958
55 135 57.2153
56 135 57.1493
57 135 57.0276
58 135 56.8494
59 135 56.4876
60 135 55.8866
61 135 55.4063
62 135 55.0966
63 135 54.8466
64 135 54.6915
65 135 54.5966
66 135 54.4817
67 135 54.515
68 135 54.5372
69 135 54.54
70 135 54.5894
71 135 54.6074
72 135 54.4089
73 135 54.2543
74 135 54.0647
75 135 53.9032
76 135 53.6864
77 135 53.3702
78 135 52.9556
79 135 52.8256
80 135 52.7426
81 135 52.6205
82 135 52.1757
83 135 51.6999
84 135 51.2564
85 135 50.5675
86 135 49.6378
87 135 48.4997
88 135 47.0295
89 135 44.7291
90 135 41.8667
91 135 36.4396
92 135 26.0623
93 135 -3.14258
94 135 -3.14258
95 135 -3.14258
96 135 -3.14258
97 135 -3.14258
98 135 -3.14258
99 135 -3.14258
100 135 -3.14258
101 135 -3.14258
102 135 -3.14258
103 135 -3.14258
104 135 -3.14258
105 135 -3.14258
106 135 -3.14258
107 135 -3.14258
108 135 -3.14258
109 135 -3.14258
110 135 -3.14258
111 135 -3.14258
112 135 -3.14258
113 135 -3.14258
114 135 -3.14258
115 135 -3.14258
116 135 -3.14258
117 135 -3.14258
118 135 -3.14258
119 135 -3.14258
0 136 -3.14258
1 136 -3.14258
2 136 -3.14258
3 136 -3.14258
4 136 -3.14258
5 136 -3.14258
6 136 -3.14258
7 136 -3.14258
8 136 -3.14258
9 136 -3.14258
10 136 -3.14258
11 136 -3.14258
12 136 -3.14258
13 136 -3.14258
14 136 -3.14258
15 136 -3.14258
16 136 -3.14258
17 136 -3.14258
18 136 -3.14258
19 136 27.4791
20 136 29.0426
21 136 31.2241
22 136 32.0242
23 136 32.8465
24 136 33.8221
25 136 34.4915
26 136 35.3172
27 136 36.1848
28 136 37.128
29 136 38.3442
30 136 39.0749
31 136 40.7104
32 136 42.2379
33 136 44.4178
34 136 45.9723
35 136 48.4904
36 136 49.7747
37 136 51.2704
38 136 52.3147
39 136 52.99
40 136 53.4831
41 136 54.0227
42 136 54.598
43 136 55.0696
44 136 55.4467
45 136 55.8029
46 136 56.1359
47 136 56.4589
48 136 56.7743
49 136 56.9451
50 136 57.0362
51 136 57.1128
52 136 57.1613
53 136 57.1479
54 136 57.1369
55 136 57.1191
56 136 57.0557
57 136 57.0059
58 136 56.9062
59 136 56.6672
60 136 56.1405
61 136 55.6831
62 136 55.3724
63 136 55.1746
64 136 55.05
65 136 54.8903
66 136 54.8109
67 136 54.7412
68 136 54.7371
69 136 54.7833
70 136 54.8122
71 136 54.7631
72 136 54.7607
73 136 54.6365
74 136 54.5309
75 136 54.4065
76 136 54.2127
77 136 53.9545
78 136 53.6065
79 136 53.3117
80 136 52.9327
81 136 52.8167
82 136 52.5822
83 136 52.0039
84 136 51.5879
85 136 50.994
86 136 49.8929
87 136 48.6426
88 136 47.2352
89 136 45.4386
90 136 42.887
91 136 36.9966
92 136 26.2141
93 136 -3.14258
94 136 -3.14258
95 136 -3.14258
96 136 -3.14258
97 136 -3.14258
98 136 -3.14258
99 136 -3.14258
100 136 -3.14258
101 136 -3.14258
102 136 -3.14258
103 136 -3.14258
104 136 -3.14258
105 136 -3.14258
106 136 -3.14258
107 136 -3.14258
108 136 -3.14258
109 136 -3.14258
110 136 -3.14258
111 136 -3.14258
112 136 -3.14258
113 136 -3.14258
114 136 -3.14258
115 136 -3.14258
116 136 -3.14258
117 136 -3.14258
118 136 -3.14258
119 136 -3.14258
0 137 -3.14258
1 137 -3.14258
2 137 -3.14258
3 137 -3.14258
4 137 -3.14258
5 137 -3.14258
6 137 -3.14258
7 137 -3.14258
8 137 -3.14258
9 137 -3.14258
10 137 -3.14258
11 137 -3.14258
12 137 -3.14258
13 137 -3.14258
14 137 -3.14258
15 137 -3.14258
16 137 -3.14258
17 137 -3.14258
18 137 -3.14258
19 137 29.0822
20 137 30.8453
21 137 31.9721
22 137 33.0214
23 137 33.7329
24 137 34.5854
25 137 35.4246
26 137 36.2795
27 137 37.1703
28 137 38.1432
29 137 39.3059
30 137 40.4233
31 137 41.4282
32 137 42.7046
33 137 44.2445
34 137 46.2751
35 137 47.9809
36 137 49.5467
37 137 50.8836
38 137 52.158
39 137 52.9752
40 137 53.4475
41 137 54.0445
42 137 54.5213
43 137 54.8346
44 137 55.1581
45 137 55.5261
46 137 55.8785
47 137 56.2313
48 137 56.5482
49 137 56.8026
50 137 56.9408
51 137 57.0247
52 137 57.0884
53 137 57.0811
54 137 57.0736
55 137 57.0622
56 137 57.0336
57 137 56.9923
58 137 56.9457
59 137 56.8545
60 137 56.4515
61 137 56.0161
62 137 55.7132
63 137 55.5127
64 137 55.3281
65 137 55.2039
66 137 55.0688
67 137 54.97
68 137 54.8852
69 137 54.8876
70 137 54.911
71 137 54.9678
72 137 54.8933
73 137 54.8155
74 137 54.7349
75 137 54.6175
76 137 54.4848
77 137 54.3697
78 137 54.204
79 137 53.8013
80 137 53.4389
81 137 53.1539
82 137 52.837
83 137 52.5076
84 137 51.9219
85 137 51.5353
86 137 50.405
87 137 48.8397
88 137 47.3357
89 137 45.2452
90 137 42.4112
91 137 38.0055
92 137 32.0371
93 137 -3.14258
94 137 -3.14258
95 137 -3.14258
96 137 -3.14258
97 137 -3.14258
98 137 -3.14258
99 137 -3.14258
100 137 -3.14258
101 137 -3.14258
102 137 -3.14258
103 137 -3.14258
104 137 -3.14258
105 137 -3.14258
106 137 -3.14258
107 137 -3.14258
108 137 -3.14258
109 137 -3.14258
110 137 -3.14258
111 137 -3.14258
112 137 -3.14258
113 137 -3.14258
114 137 -3.14258
115 137 -3.14258
116 137 -3.14258
117 137 -3.14258
118 137 -3.14258
119 137 -3.14258
0 138 -3.14258
1 138 -3.14258
2 138 -3.14258
3 138 -3.14258
4 138 -3.14258
5 138 -3.14258
6 138 -3.14258
7 138 -3.14258
8 138 -3.14258
9 138 -3.14258
10 138 -3.14258
11 138 -3.14258
12 138 -3.14258
13 138 -3.14258
14 138 -3.14258
15 138 -3.14258
16 138 -3.14258
17 138 26.6095
18 138 27.2754
19 138 30.7983
20 138 32.0526
21 138 33.1685
22 138 33.8475
23 138 34.643
24 138 35.4952
25 138 36.3421
26 138 37.2058
27 138 38.1067
28 138 39.0634
29 138 40.1062
30 138 41.2457
31 138 42.4086
32 138 43.167
33 138 44.5711
34 138 46.1691
35 138 47.819
36 138 49.4781
37 138 50.6991
38 138 52.0907
39 138 52.8392
40 138 53.4784
41 138 54.0393
42 138 54.344
43 138 54.6059
44 138 54.8943
45 138 55.228
46 138 55.6329
47 138 55.9803
48 138 56.3132
49 138 56.6291
50 138 56.861
51 138 56.958
52 138 57.0282
53 138 57.0463
54 138 57.0456
55 138 57.0387
56 138 57.0299
57 138 56.9997
58 138 56.9793
59 138 56.9485
60 138 56.7326
61 138 56.3376
62 138 56.0532
63 138 55.8819
64 138 55.7726
65 138 55.6167
66 138 55.4766
67 138 55.335
68 138 55.172
69 138 55.0312
70 138 54.9929
71 138 54.9678
72 138 54.9648
73 138 54.929
74 138 54.8399
75 138 54.7324
76 138 54.6149
77 138 54.4977
78 138 54.3713
79 138 54.2619
80 138 54.0015
81 138 53.6421
82 138 53.2337
83 138 53.0225
84 138 52.8077
85 138 52.2968
86 138 51.1184
87 138 49.3715
88 138 47.4916
89 138 45.3661
90 138 42.4325
91 138 37.5574
92 138 -3.14258
93 138 -3.14258
94 138 -3.14258
95 138 -3.14258
96 138 -3.14258
97 138 -3.14258
98 138 -3.14258
99 138 -3.14258
100 138 -3.14258
101 138 -3.14258
102 138 -3.14258
103 138 -3.14258
104 138 -3.14258
105 138 -3.14258
106 138 -3.14258
107 138 -3.14258
108 138 -3.14258
109 138 -3.14258
110 138 -3.14258
111 138 -3.14258
112 138 -3.14258
113 138 -3.14258
114 138 -3.14258
115 138 -3.14258
116 138 -3.14258
117 138 -3.14258
118 138 -3.14258
119 138 -3.14258
0 139 -3.14258
1 139 -3.14258
2 139 -3.14258
3 139 -3.14258
4 139 -3.14258
5 139 -3.14258
6 139 -3.14258
7 139 -3.14258
8 139 -3.14258
9 139 -3.14258
10 139 -3.14258
11 139 -3.14258
12 139 -3.14258
13 139 -3.14258
14 139 -3.14258
15 139 26.4056
16 139 28.2363
17 139 29.7083
18 139 31.1869
19 139 32.3168
20 139 33.3267
21 139 34.0599
22 139 34.8202
23 139 35.6147
24 139 36.4101
25 139 37.243
26 139 38.0948
27 139 38.9873
28 139 39.9307
29 139 40.9255
30 139 41.9694
31 139 43.0597
32 139 44.2594
33 139 45.7004
34 139 46.7913
35 139 48.2957
36 139 49.722
37 139 50.9842
38 139 51.9871
39 139 52.7953
40 139 53.5901
41 139 53.9342
42 139 54.1874
43 139 54.4679
44 139 54.741
45 139 55.0818
46 139 55.4288
47 139 55.7782
48 139 56.1007
49 139 56.4606
50 139 56.7296
51 139 56.93
52 139 56.9979
53 139 57.0277
54 139 57.04
55 139 57.0481
56 139 57.0544
57 139 57.0392
58 139 57.1224
59 139 57.015
60 139 56.9124
61 139 56.6981
62 139 56.4536
63 139 56.2956
64 139 56.1652
65 139 56.0317
66 139 55.8857
67 139 55.7216
68 139 55.5508
69 139 55.3464
70 139 55.1866
71 139 55.1088
72 139 55.0797
73 139 55.0385
74 139 54.9635
75 139 54.8572
76 139 54.7377
77 139 54.6282
78 139 54.4957
79 139 54.3123
80 139 54.0783
81 139 53.7326
82 139 53.4363
83 139 53.1471
84 139 52.8003
85 139 52.3234
86 139 51.0396
87 139 49.8281
88 139 47.9519
89 139 45.8189
90 139 42.9128
91 139 38.8683
92 139 32.7839
93 139 29.2656
94 139 -3.14258
95 139 -3.14258
96 139 -3.14258
97 139 -3.14258
98 139 -3.14258
99 139 -3.14258
100 139 -3.14258
101 139 -3.14258
102 139 -3.14258
103 139 -3.14258
104 139 -3.14258
105 139 -3.14258
106 139 -3.14258
107 139 -3.14258
108 139 -3.14258
109 139 -3.14258
110 139 -3.14258
111 139 -3.14258
112 139 -3.14258
113 139 -3.14258
114 139 -3.14258
115 139 -3.14258
116 139 -3.14258
117 139 -3.14258
118 139 -3.14258
119 139 -3.14258
0 140 -3.14258
1 140 -3.14258
2 140 -3.14258
3 140 -3.14258
4 140 -3.14258
5 140 -3.14258
6 140 -3.14258
7 140 -3.14258
8 140 -3.14258
9 140 -3.14258
10 140 -3.14258
11 140 -3.14258
12 140 -3.14258
13 140 -3.14258
14 140 26.7768
15 140 29.2855
16 140 30.8422
17 140 32.0574
18 140 32.847
19 140 33.9973
20 140 34.5839
21 140 35.2517
22 140 35.9414
23 140 36.6498
24 140 37.3522
25 140 38.1248
26 140 38.9432
27 140 39.817
28 140 40.7465
29 140 41.7285
30 140 42.7623
31 140 43.8748
32 140 44.9872
33 140 46.1904
34 140 47.4916
35 140 48.7668
36 140 50.0947
37 140 51.0723
38 140 51.9521
39 140 52.6128
40 140 53.2248
41 140 53.6964
42 140 54.0509
43 140 54.4247
44 140 54.7532
45 140 55.0803
46 140 55.3961
47 140 55.6779
48 140 56.0129
49 140 56.3348
50 140 56.6863
51 140 56.9068
52 140 57.0143
53 140 57.0508
54 140 57.0778
55 140 57.104
56 140 57.1244
57 140 57.1362
58 140 57.1756
59 140 57.175
60 140 57.0825
61 140 56.971
62 140 56.8506
63 140 56.6647
64 140 56.579
65 140 56.4592
66 140 56.3131
67 140 56.1728
68 140 55.9697
69 140 55.7475
70 140 55.507
71 140 55.3845
72 140 55.2829
73 140 55.1818
74 140 55.1029
75 140 54.9986
76 140 54.866
77 140 54.7519
78 140 54.5905
79 140 54.3328
80 140 54.0639
81 140 53.6658
82 140 53.2617
83 140 52.829
84 140 52.3612
85 140 51.8451
86 140 51.1785
87 140 49.8239
88 140 48.5078
89 140 46.4941
90 140 43.7543
91 140 40.6864
92 140 37.6822
93 140 34.3111
94 140 31.265
95 140 30.0599
96 140 27.4306
97 140 -3.14258
98 140 -3.14258
99 140 -3.14258
100 140 -3.14258
101 140 -3.14258
102 140 -3.14258
103 140 -3.14258
104 140 -3.14258
105 140 -3.14258
106 140 -3.14258
107 140 -3.14258
108 140 -3.14258
109 140 -3.14258
110 140 -3.14258
111 140 -3.14258
112 140 -3.14258
113 140 -3.14258
114 140 -3.14258
115 140 -3.14258
116 140 -3.14258
117 140 -3.14258
118 140 -3.14258
119 140 -3.14258
0 141 -3.14258
1 141 -3.14258
2 141 -3.14258
3 141 -3.14258
4 141 -3.14258
5 141 -3.14258
6 141 -3.14258
7 141 -3.14258
8 141 -3.14258
9 141 -3.14258
10 141 -3.14258
11 141 -3.14258
12 141 -3.14258
13 141 26.5181
14 141 29.7434
15 141 31.6763
16 141 32.7779
17 141 33.45
18 141 34.2863
19 141 35.1945
20 141 35.7026
21 141 36.314
22 141 36.9333
23 141 37.5803
24 141 38.2516
25 141 38.9396
26 141 39.7362
27 141 40.5911
28 141 41.5098
29 141 42.4797
30 141 43.488
31 141 44.4187
32 141 45.6627
33 141 46.9819
34 141 48.1089
35 141 49.2898
36 141 50.1941
37 141 51.0856
38 141 51.8663
39 141 52.4232
40 141 53.0313
41 141 53.5808
42 141 54.043
43 141 54.4094
44 141 54.748
45 141 55.0685
46 141 55.3966
47 141 55.6979
48 141 55.9644
49 141 56.3293
50 141 56.671
51 141 56.9093
52 141 57.0206
53 141 57.1203
54 141 57.1574
55 141 57.192
56 141 57.2103
57 141 57.2608
58 141 57.295
59 141 57.2778
60 141 57.2173
61 141 57.162
62 141 57.1438
63 141 56.9698
64 141 56.9329
65 141 56.8722
66 141 56.7668
67 141 56.5905
68 141 56.3836
69 141 56.1629
70 141 55.9519
71 141 55.7456
72 141 55.5468
73 141 55.3353
74 141 55.193
75 141 55.0824
76 141 54.9664
77 141 54.82
78 141 54.6195
79 141 54.3363
80 141 54.0294
81 141 53.5973
82 141 53.1295
83 141 52.6207
84 141 52.1064
85 141 51.5024
86 141 50.8422
87 141 50.0713
88 141 48.6356
89 141 47.1999
90 141 44.6616
91 141 41.5228
92 141 38.0441
93 141 34.6306
94 141 31.8834
95 141 30.5105
96 141 28.762
97 141 26.9413
98 141 -3.14258
99 141 -3.14258
100 141 -3.14258
101 141 -3.14258
102 141 -3.14258
103 141 -3.14258
104 141 -3.14258
105 141 -3.14258
106 141 -3.14258
107 141 -3.14258
108 141 -3.14258
109 141 -3.14258
110 141 -3.14258
111 141 -3.14258
112 141 -3.14258
113 141 -3.14258
114 141 -3.14258
115 141 -3.14258
116 141 -3.14258
117 141 -3.14258
118 141 -3.14258
119 141 -3.14258
0 142 -3.14258
1 142 -3.14258
2 142 -3.14258
3 142 -3.14258
4 142 -3.14258
5 142 -3.14258
6 142 -3.14258
7 142 -3.14258
8 142 -3.14258
9 142 -3.14258
10 142 -3.14258
11 142 -3.14258
12 142 26.4368
13 142 29.7558
14 142 31.9968
15 142 33.3553
16 142 34.2038
17 142 34.9813
18 142 35.5287
19 142 36.1835
20 142 36.7607
21 142 37.2524
22 142 37.8017
23 142 38.3907
24 142 38.9716
25 142 39.7082
26 142 40.4496
27 142 41.3012
28 142 42.222
29 142 43.2123
30 142 44.1961
31 142 45.1799
32 142 46.3923
33 142 47.4683
34 142 48.6261
35 142 49.5925
36 142 50.4292
37 142 51.2661
38 142 51.8513
39 142 52.5245
40 142 53.0472
41 142 53.5638
42 142 54.0193
43 142 54.4141
44 142 54.7735
45 142 55.1049
46 142 55.424
47 142 55.73
48 142 56.06
49 142 56.3407
50 142 56.7266
51 142 56.9347
52 142 57.0624
53 142 57.1803
54 142 57.2683
55 142 57.3092
56 142 57.3549
57 142 57.394
58 142 57.4348
59 142 57.4415
60 142 57.3779
61 142 57.3304
62 142 57.309
63 142 57.2155
64 142 57.1706
65 142 57.1141
66 142 57.0315
67 142 56.9397
68 142 56.8391
69 142 56.5623
70 142 56.3219
71 142 56.0517
72 142 55.8775
73 142 55.6134
74 142 55.3796
75 142 55.2088
76 142 55.04
77 142 54.8701
78 142 54.6442
79 142 54.3273
80 142 53.9981
81 142 53.5646
82 142 53.0517
83 142 52.4926
84 142 51.9412
85 142 51.306
86 142 50.6059
87 142 49.8481
88 142 48.9407
89 142 47.4288
90 142 45.1916
91 142 42.2665
92 142 38.8589
93 142 35.4404
94 142 32.8753
95 142 31.14
96 142 29.5054
97 142 28.1253
98 142 25.62
99 142 -3.14258
100 142 -3.14258
101 142 -3.14258
102 142 -3.14258
103 142 -3.14258
104 142 -3.14258
105 142 -3.14258
106 142 -3.14258
107 142 -3.14258
108 142 -3.14258
109 142 -3.14258
110 142 -3.14258
111 142 -3.14258
112 142 -3.14258
113 142 -3.14258
114 142 -3.14258
115 142 -3.14258
116 142 -3.14258
117 142 -3.14258
118 142 -3.14258
119 142 -3.14258
0 143 -3.14258
1 143 -3.14258
2 143 -3.14258
3 143 -3.14258
4 143 -3.14258
5 143 -3.14258
6 143 -3.14258
7 143 -3.14258
8 143 -3.14258
9 143 -3.14258
10 143 -3.14258
11 143 26.0895
12 143 29.356
13 143 32.066
14 143 33.5898
15 143 34.5418
16 143 35.318
17 143 35.9527
18 143 36.5557
19 143 37.1359
20 143 37.6223
21 143 38.0702
22 143 38.5532
23 143 39.0454
24 143 39.6446
25 143 40.3089
26 143 41.1154
27 143 41.921
28 143 42.8648
29 143 43.8653
30 143 44.9112
31 143 45.9444
32 143 46.9657
33 143 48.0922
34 143 49.0828
35 143 49.9219
36 143 50.734
37 143 51.3995
38 143 52.0195
39 143 52.6114
40 143 53.1539
41 143 53.6744
42 143 54.1154
43 143 54.5134
44 143 54.8794
45 143 55.2165
46 143 55.5618
47 143 55.8823
48 143 56.1723
49 143 56.5024
50 143 56.8059
51 143 56.9922
52 143 57.1402
53 143 57.2751
54 143 57.396
55 143 57.4753
56 143 57.5331
57 143 57.5735
58 143 57.5929
59 143 57.6114
60 143 57.6136
61 143 57.5582
62 143 57.51
63 143 57.4588
64 143 57.4239
65 143 57.3584
66 143 57.2682
67 143 57.1679
68 143 57.0166
69 143 56.8858
70 143 56.6572
71 143 56.4008
72 143 56.1934
73 143 55.9437
74 143 55.6709
75 143 55.3997
76 143 55.1734
77 143 54.9278
78 143 54.651
79 143 54.3584
80 143 53.9561
81 143 53.4952
82 143 52.9624
83 143 52.4314
84 143 51.8597
85 143 51.2235
86 143 50.5178
87 143 49.7048
88 143 48.8058
89 143 47.3199
90 143 45.7526
91 143 42.6677
92 143 39.2355
93 143 36.4387
94 143 34.279
95 143 32.9104
96 143 31.236
97 143 29.1539
98 143 25.8476
99 143 19.4287
100 143 -3.14258
101 143 -3.14258
102 143 -3.14258
103 143 -3.14258
104 143 -3.14258
105 143 -3.14258
106 143 -3.14258
107 143 -3.14258
108 143 -3.14258
109 143 -3.14258
110 143 -3.14258
111 143 -3.14258
112 143 -3.14258
113 143 -3.14258
114 143 -3.14258
115 143 -3.14258
116 143 -3.14258
117 143 -3.14258
118 143 -3.14258
119 143 -3.14258
0 144 -3.14258
1 144 -3.14258
2 144 -3.14258
3 144 -3.14258
4 144 -3.14258
5 144 -3.14258
6 144 -3.14258
7 144 -3.14258
8 144 -3.14258
9 144 -3.14258
10 144 24.6386
11 144 28.7768
12 144 31.6532
13 144 33.25
14 144 34.7521
15 144 35.5805
16 144 36.4009
17 144 36.9345
18 144 37.4714
19 144 38.0895
20 144 38.4492
21 144 38.8134
22 144 39.2374
23 144 39.6933
24 144 40.1323
25 144 40.8762
26 144 41.6192
27 144 42.465
28 144 43.3652
29 144 44.4944
30 144 45.556
31 144 46.5284
32 144 47.6208
33 144 48.5628
34 144 49.4574
35 144 50.2969
36 144 50.9955
37 144 51.5915
38 144 52.219
39 144 52.7822
40 144 53.3199
41 144 53.7978
42 144 54.2334
43 144 54.6445
44 144 55.0281
45 144 55.4002
46 144 55.762
47 144 56.1052
48 144 56.3779
49 144 56.6513
50 144 56.9109
51 144 57.0796
52 144 57.2399
53 144 57.3914
54 144 57.5402
55 144 57.6578
56 144 57.7134
57 144 57.7573
58 144 57.7794
59 144 57.7964
60 144 57.8069
61 144 57.7918
62 144 57.7431
63 144 57.6889
64 144 57.6465
65 144 57.5881
66 144 57.5141
67 144 57.3642
68 144 57.1995
69 144 57.0727
70 144 56.9455
71 144 56.761
72 144 56.4971
73 144 56.2205
74 144 55.9194
75 144 55.6309
76 144 55.3444
77 144 55.0909
78 144 54.7678
79 144 54.4126
80 144 54.0227
81 144 53.4876
82 144 52.9458
83 144 52.411
84 144 51.8304
85 144 51.1955
86 144 50.5099
87 144 49.7356
88 144 48.8387
89 144 47.4821
90 144 45.9371
91 144 42.8524
92 144 39.6912
93 144 37.3472
94 144 35.6031
95 144 33.6355
96 144 32.0236
97 144 30.0556
98 144 27.6445
99 144 25.0505
100 144 25.2678
101 144 -3.14258
102 144 -3.14258
103 144 -3.14258
104 144 -3.14258
105 144 -3.14258
106 144 -3.14258
107 144 -3.14258
108 144 -3.14258
109 144 -3.14258
110 144 -3.14258
111 144 -3.14258
112 144 -3.14258
113 144 -3.14258
114 144 -3.14258
115 144 -3.14258
116 144 -3.14258
117 144 -3.14258
118 144 -3.14258
119 144 -3.14258
0 145 -3.14258
1 145 -3.14258
2 145 -3.14258
3 145 -3.14258
4 145 -3.14258
5 145 -3.14258
6 145 -3.14258
7 145 -3.14258
8 145 -3.14258
9 145 25.0371
10 145 27.7505
11 145 30.4358
12 145 33.1019
13 145 34.1667
14 145 35.5981
15 145 36.5553
16 145 37.4047
17 145 37.8141
18 145 38.4142
19 145 38.7798
20 145 39.0769
21 145 39.4515
22 145 39.8632
23 145 40.3125
24 145 40.8086
25 145 41.3244
26 145 42.1289
27 145 42.9301
28 145 44.0798
29 145 45.0399
30 145 46.1188
31 145 47.2527
32 145 48.167
33 145 49.0757
34 145 49.8838
35 145 50.6418
36 145 51.2761
37 145 51.8668
38 145 52.4636
39 145 53.0158
40 145 53.5088
41 145 53.9515
42 145 54.3761
43 145 54.7957
44 145 55.2066
45 145 55.5947
46 145 55.9808
47 145 56.3519
48 145 56.6541
49 145 56.8814
50 145 57.0173
51 145 57.2304
52 145 57.3938
53 145 57.5562
54 145 57.7144
55 145 57.8545
56 145 57.9204
57 145 57.956
58 145 57.9748
59 145 57.9841
60 145 57.9967
61 145 57.9791
62 145 57.9709
63 145 57.9211
64 145 57.86
65 145 57.8074
66 145 57.7051
67 145 57.5618
68 145 57.3917
69 145 57.2682
70 145 57.1321
71 145 56.9894
72 145 56.8316
73 145 56.5218
74 145 56.1913
75 145 55.8681
76 145 55.589
77 145 55.2719
78 145 54.9158
79 145 54.5127
80 145 54.0174
81 145 53.5684
82 145 53.0143
83 145 52.4241
84 145 51.8403
85 145 51.2182
86 145 50.5499
87 145 49.825
88 145 48.9893
89 145 47.4885
90 145 46.0006
91 145 42.6633
92 145 40.1227
93 145 38.2494
94 145 36.0531
95 145 34.2653
96 145 32.6196
97 145 30.9165
98 145 29.1399
99 145 27.6322
100 145 27.1448
101 145 27.1645
102 145 29.4069
103 145 -3.14258
104 145 -3.14258
105 145 -3.14258
106 145 -3.14258
107 145 -3.14258
108 145 -3.14258
109 145 -3.14258
110 145 -3.14258
111 145 -3.14258
112 145 -3.14258
113 145 -3.14258
114 145 -3.14258
115 145 -3.14258
116 145 -3.14258
117 145 -3.14258
118 145 -3.14258
119 145 -3.14258
0 146 -3.14258
1 146 -3.14258
2 146 -3.14258
3 146 -3.14258
4 146 -3.14258
5 146 -3.14258
6 146 -3.14258
7 146 -3.14258
8 146 -3.14258
9 146 24.7578
10 146 28.8585
11 146 31.7277
12 146 34.4014
13 146 35.209
14 146 36.7082
15 146 37.6975
16 146 38.0837
17 146 38.7264
18 146 39.0696
19 146 39.3438
20 146 39.6522
21 146 39.9993
22 146 40.3982
23 146 40.8508
24 146 41.3555
25 146 41.9298
26 146 42.5218
27 146 43.4154
28 146 44.3362
29 146 45.5271
30 146 46.7111
31 146 47.8597
32 146 48.7138
33 146 49.4778
34 146 50.1855
35 146 50.8675
36 146 51.5228
37 146 52.1447
38 146 52.7581
39 146 53.2676
40 146 53.7209
41 146 54.1604
42 146 54.5551
43 146 54.9645
44 146 55.3787
45 146 55.7989
46 146 56.206
47 146 56.6343
48 146 56.926
49 146 57.0934
50 146 57.2451
51 146 57.4191
52 146 57.5847
53 146 57.7505
54 146 57.9036
55 146 58.0214
56 146 58.0582
57 146 58.0883
58 146 58.1082
59 146 58.1172
60 146 58.1245
61 146 58.145
62 146 58.141
63 146 58.1245
64 146 58.0563
65 146 57.9877
66 146 57.8884
67 146 57.7881
68 146 57.5841
69 146 57.4657
70 146 57.3245
71 146 57.1754
72 146 57.0214
73 146 56.8596
74 146 56.4965
75 146 56.1293
76 146 55.8199
77 146 55.4873
78 146 55.102
79 146 54.6778
80 146 54.2031
81 146 53.6527
82 146 53.1066
83 146 52.5083
84 146 51.8884
85 146 51.2916
86 146 50.6341
87 146 49.8691
88 146 48.7457
89 146 47.3884
90 146 45.7952
91 146 42.3851
92 146 40.5773
93 146 38.3772
94 146 36.539
95 146 34.8842
96 146 33.3364
97 146 31.8044
98 146 30.3663
99 146 29.1936
100 146 28.5148
101 146 28.2473
102 146 28.3853
103 146 27.3529
104 146 -3.14258
105 146 -3.14258
106 146 -3.14258
107 146 -3.14258
108 146 -3.14258
109 146 -3.14258
110 146 -3.14258
111 146 -3.14258
112 146 -3.14258
113 146 -3.14258
114 146 -3.14258
115 146 -3.14258
116 146 -3.14258
117 146 -3.14258
118 146 -3.14258
119 146 -3.14258
0 147 -3.14258
1 147 -3.14258
2 147 -3.14258
3 147 -3.14258
4 147 -3.14258
5 147 -3.14258
6 147 -3.14258
7 147 -3.14258
8 147 -3.14258
9 147 25.2333
10 147 29.8598
11 147 32.8184
12 147 35.6869
13 147 36.4353
14 147 37.6459
15 147 38.5882
16 147 39.0245
17 147 39.3724
18 147 39.5993
19 147 39.8456
20 147 40.1358
21 147 40.4801
22 147 40.8797
23 147 41.3369
24 147 41.8513
25 147 42.4275
26 147 43.0637
27 147 43.6804
28 147 44.6689
29 147 45.8944
30 147 47.12
31 147 48.3574
32 147 49.1198
33 147 49.7908
34 147 50.5295
35 147 51.1319
36 147 51.793
37 147 52.4583
38 147 53.0007
39 147 53.5058
40 147 53.9746
41 147 54.4021
42 147 54.8035
43 147 55.2159
44 147 55.6321
45 147 56.0417
46 147 56.4098
47 147 56.8673
48 147 57.1157
49 147 57.2829
50 147 57.4425
51 147 57.6045
52 147 57.7766
53 147 57.9417
54 147 58.0704
55 147 58.1628
56 147 58.1997
57 147 58.2328
58 147 58.2519
59 147 58.259
60 147 58.2553
61 147 58.2793
62 147 58.2989
63 147 58.2651
64 147 58.1856
65 147 58.1685
66 147 58.0724
67 147 57.9626
68 147 57.8148
69 147 57.6753
70 147 57.5239
71 147 57.3667
72 147 57.2052
73 147 57.0265
74 147 56.8396
75 147 56.4566
76 147 56.074
77 147 55.7203
78 147 55.3274
79 147 54.8961
80 147 54.4132
81 147 53.8807
82 147 53.2066
83 147 52.6141
84 147 52.0054
85 147 51.398
86 147 50.7264
87 147 49.7947
88 147 48.8043
89 147 47.5482
90 147 45.7971
91 147 42.3266
92 147 40.3269
93 147 38.5873
94 147 36.9729
95 147 35.4594
96 147 33.9909
97 147 32.5984
98 147 31.3273
99 147 30.2612
100 147 29.4736
101 147 28.9247
102 147 28.4926
103 147 27.8078
104 147 27.1503
105 147 -3.14258
106 147 -3.14258
107 147 -3.14258
108 147 -3.14258
109 147 -3.14258
110 147 -3.14258
111 147 -3.14258
112 147 -3.14258
113 147 -3.14258
114 147 -3.14258
115 147 -3.14258
116 147 -3.14258
117 147 -3.14258
118 147 -3.14258
119 147 -3.14258
0 148 -3.14258
1 148 -3.14258
2 148 -3.14258
3 148 -3.14258
4 148 -3.14258
5 148 -3.14258
6 148 -3.14258
7 148 -3.14258
8 148 -3.14258
9 148 25.9006
10 148 30.6856
11 148 33.7189
12 148 36.6271
13 148 37.2137
14 148 38.5509
15 148 39.3617
16 148 39.8334
17 148 39.9447
18 148 40.0817
19 148 40.2882
20 148 40.5609
21 148 40.9011
22 148 41.299
23 148 41.7611
24 148 42.2854
25 148 42.8653
26 148 43.5305
27 148 44.3156
28 148 45.1767
29 148 46.3058
30 148 47.542
31 148 48.6663
32 148 49.4037
33 148 50.0451
34 148 50.718
35 148 51.36
36 148 52.0604
37 148 52.7002
38 148 53.2124
39 148 53.7085
40 148 54.1825
41 148 54.6251
42 148 55.0666
43 148 55.4895
44 148 55.8922
45 148 56.317
46 148 56.7
47 148 57
48 148 57.2396
49 148 57.4686
50 148 57.6363
51 148 57.7964
52 148 57.9661
53 148 58.1044
54 148 58.2152
55 148 58.3043
56 148 58.3512
57 148 58.3864
58 148 58.4052
59 148 58.4176
60 148 58.423
61 148 58.4286
62 148 58.4316
63 148 58.4056
64 148 58.3221
65 148 58.3344
66 148 58.2741
67 148 58.1566
68 148 58.0221
69 148 57.8925
70 148 57.7281
71 148 57.5647
72 148 57.3862
73 148 57.2097
74 148 57.0212
75 148 56.8017
76 148 56.4048
77 148 55.9955
78 148 55.612
79 148 55.1502
80 148 54.6342
81 148 54.1104
82 148 53.4232
83 148 52.7359
84 148 52.1131
85 148 51.4802
86 148 50.67
87 148 50.0257
88 148 48.9638
89 148 47.5286
90 148 46.1249
91 148 41.7394
92 148 40.2606
93 148 38.8035
94 148 37.3694
95 148 35.9433
96 148 34.5694
97 148 33.2708
98 148 32.0833
99 148 31.0504
100 148 30.1936
101 148 29.4851
102 148 28.8528
103 148 28.1938
104 148 27.575
105 148 27.0109
106 148 -3.14258
107 148 -3.14258
108 148 -3.14258
109 148 -3.14258
110 148 -3.14258
111 148 -3.14258
112 148 -3.14258
113 148 -3.14258
114 148 -3.14258
115 148 -3.14258
116 148 -3.14258
117 148 -3.14258
118 148 -3.14258
119 148 -3.14258
0 149 -3.14258
1 149 -3.14258
2 149 -3.14258
3 149 -3.14258
4 149 -3.14258
5 149 -3.14258
6 149 -3.14258
7 149 -3.14258
8 149 -3.14258
9 149 26.6366
10 149 31.5698
11 149 34.7127
12 149 37.469
13 149 38.4798
14 149 39.502
15 149 39.9594
16 149 40.3459
17 149 40.3657
18 149 40.4796
19 149 40.6712
20 149 40.9439
21 149 41.2755
22 149 41.6653
23 149 42.105
24 149 42.6272
25 149 43.1952
26 149 43.809
27 149 44.4296
28 149 45.4197
29 149 46.6145
30 149 47.7414
31 149 48.9112
32 149 49.6481
33 149 50.2576
34 149 50.9381
35 149 51.6496
36 149 52.3048
37 149 52.9079
38 149 53.4225
39 149 53.9209
40 149 54.3932
41 149 54.8535
42 149 55.3086
43 149 55.7655
44 149 56.185
45 149 56.588
46 149 56.9388
47 149 57.1499
48 149 57.3629
49 149 57.6064
50 149 57.8365
51 149 57.9859
52 149 58.1209
53 149 58.2496
54 149 58.3754
55 149 58.4481
56 149 58.5139
57 149 58.5494
58 149 58.5711
59 149 58.5829
60 149 58.5873
61 149 58.5725
62 149 58.5615
63 149 58.5573
64 149 58.5698
65 149 58.5293
66 149 58.455
67 149 58.3534
68 149 58.2202
69 149 58.0831
70 149 57.9423
71 149 57.7582
72 149 57.5837
73 149 57.3996
74 149 57.2067
75 149 57.0102
76 149 56.7546
77 149 56.3151
78 149 55.8592
79 149 55.4185
80 149 54.9124
81 149 54.3673
82 149 53.6768
83 149 52.9233
84 149 52.1535
85 149 51.3705
86 149 50.817
87 149 50.1965
88 149 49.6499
89 149 48.2411
90 149 45.9787
91 149 41.2617
92 149 40.2201
93 149 38.9966
94 149 37.7115
95 149 36.3748
96 149 35.0726
97 149 33.8324
98 149 32.6845
99 149 31.6635
100 149 30.7652
101 149 29.9694
102 149 29.2397
103 149 28.5396
104 149 27.8776
105 149 27.25
106 149 26.7583
107 149 -3.14258
108 149 -3.14258
109 149 -3.14258
110 149 -3.14258
111 149 -3.14258
112 149 -3.14258
113 149 -3.14258
114 149 -3.14258
115 149 -3.14258
116 149 -3.14258
117 149 -3.14258
118 149 -3.14258
119 149 -3.14258
0 150 -3.14258
1 150 -3.14258
2 150 -3.14258
3 150 -3.14258
4 150 -3.14258
5 150 -3.14258
6 150 -3.14258
7 150 -3.14258
8 150 -3.14258
9 150 27.3207
10 150 32.3242
11 150 35.1866
12 150 38.1477
13 150 39.0486
14 150 39.9071
15 150 40.4993
16 150 40.7131
17 150 40.7028
18 150 40.8065
19 150 41.004
20 150 41.2678
21 150 41.5919
22 150 41.9636
23 150 42.4175
24 150 42.9232
25 150 43.4792
26 150 44.023
27 150 44.6273
28 150 45.5487
29 150 46.6962
30 150 47.8104
31 150 48.9511
32 150 49.8655
33 150 50.4717
34 150 51.1746
35 150 51.8891
36 150 52.5563
37 150 53.1152
38 150 53.6364
39 150 54.1306
40 150 54.6157
41 150 55.0916
42 150 55.562
43 150 56.0261
44 150 56.4765
45 150 56.8661
46 150 57.0928
47 150 57.3047
48 150 57.5036
49 150 57.6954
50 150 57.9312
51 150 58.1234
52 150 58.2587
53 150 58.4023
54 150 58.5162
55 150 58.6115
56 150 58.7029
57 150 58.7276
58 150 58.7464
59 150 58.7524
60 150 58.7443
61 150 58.6996
62 150 58.6843
63 150 58.6775
64 150 58.634
65 150 58.5947
66 150 58.5436
67 150 58.4803
68 150 58.3845
69 150 58.2485
70 150 58.119
71 150 57.9726
72 150 57.7937
73 150 57.6034
74 150 57.4069
75 150 57.199
76 150 56.9783
77 150 56.6166
78 150 56.1406
79 150 55.7191
80 150 55.2215
81 150 54.653
82 150 53.9524
83 150 53.2001
84 150 52.4574
85 150 51.7669
86 150 51.0327
87 150 50.5127
88 150 50.147
89 150 50.3626
90 150 49.9289
91 150 41.8307
92 150 40.4089
93 150 39.2514
94 150 38.0585
95 150 36.772
96 150 35.5137
97 150 34.3015
98 150 33.1589
99 150 32.154
100 150 31.2343
101 150 30.3877
102 150 29.5971
103 150 28.8471
104 150 28.1025
105 150 27.3288
106 150 26.4538
107 150 23.5748
108 150 -3.14258
109 150 -3.14258
110 150 -3.14258
111 150 -3.14258
112 150 -3.14258
113 150 -3.14258
114 150 -3.14258
115 150 -3.14258
116 150 -3.14258
117 150 -3.14258
118 150 -3.14258
119 150 -3.14258
0 151 -3.14258
1 151 -3.14258
2 151 -3.14258
3 151 -3.14258
4 151 -3.14258
5 151 -3.14258
6 151 -3.14258
7 151 -3.14258
8 151 -3.14258
9 151 28.3029
10 151 32.4621
11 151 35.5163
12 151 38.6955
13 151 39.3803
14 151 40.5625
15 151 40.9407
16 151 40.9629
17 151 40.9324
18 151 41.0702
19 151 41.2703
20 151 41.5314
21 151 41.8425
22 151 42.2358
23 151 42.6782
24 151 43.1637
25 151 43.6809
26 151 44.2664
27 151 44.9095
28 151 45.7616
29 151 46.8079
30 151 47.9166
31 151 49.0455
32 151 50.0752
33 151 50.6994
34 151 51.3224
35 151 52.0705
36 151 52.7587
37 151 53.3384
38 151 53.8459
39 151 54.3493
40 151 54.8475
41 151 55.3397
42 151 55.8251
43 151 56.3004
44 151 56.7671
45 151 57.0493
46 151 57.2529
47 151 57.4469
48 151 57.6531
49 151 57.855
50 151 58.0563
51 151 58.2395
52 151 58.3999
53 151 58.5309
54 151 58.6551
55 151 58.7781
56 151 58.8246
57 151 58.8176
58 151 58.8336
59 151 58.8342
60 151 58.8303
61 151 58.816
62 151 58.7955
63 151 58.7458
64 151 58.7271
65 151 58.6939
66 151 58.6409
67 151 58.607
68 151 58.5476
69 151 58.423
70 151 58.2964
71 151 58.1662
72 151 58.0146
73 151 57.8196
74 151 57.6142
75 151 57.3942
76 151 57.1531
77 151 56.9074
78 151 56.4616
79 151 56.0261
80 151 55.5392
81 151 54.9111
82 151 54.205
83 151 53.4536
84 151 52.735
85 151 51.9547
86 151 51.3042
87 151 50.5557
88 151 49.877
89 151 49.0412
90 151 47.1862
91 151 40.474
92 151 40.381
93 151 39.5417
94 151 38.4524
95 151 37.3257
96 151 36.093
97 151 34.8857
98 151 33.715
99 151 32.5975
100 151 31.6685
101 151 30.7884
102 151 29.952
103 151 29.1494
104 151 28.3397
105 151 27.5088
106 151 26.5833
107 151 25.482
108 151 -3.14258
109 151 -3.14258
110 151 -3.14258
111 151 -3.14258
112 151 -3.14258
113 151 -3.14258
114 151 -3.14258
115 151 -3.14258
116 151 -3.14258
117 151 -3.14258
118 151 -3.14258
119 151 -3.14258
0 152 -3.14258
1 152 -3.14258
2 152 -3.14258
3 152 -3.14258
4 152 -3.14258
5 152 -3.14258
6 152 -3.14258
7 152 -3.14258
8 152 -3.14258
9 152 27.2758
10 152 32.5196
11 152 35.5807
12 152 38.2579
13 152 39.5617
14 152 40.8257
15 152 41.1985
16 152 41.017
17 152 41.1171
18 152 41.2716
19 152 41.4757
20 152 41.7268
21 152 42.0673
22 152 42.4588
23 152 42.8959
24 152 43.3726
25 152 43.8808
26 152 44.4766
27 152 45.1177
28 152 45.9856
29 152 46.984
30 152 47.841
31 152 48.7794
32 152 49.8292
33 152 50.8357
34 152 51.5375
35 152 52.2633
36 152 52.9417
37 152 53.5112
38 152 54.0595
39 152 54.5709
40 152 55.0725
41 152 55.5863
42 152 56.0856
43 152 56.5742
44 152 56.9561
45 152 57.1775
46 152 57.387
47 152 57.5903
48 152 57.7907
49 152 57.9748
50 152 58.177
51 152 58.3621
52 152 58.5181
53 152 58.6589
54 152 58.7945
55 152 58.8855
56 152 58.912
57 152 58.9137
58 152 58.9187
59 152 58.9175
60 152 58.9096
61 152 58.8999
62 152 58.8806
63 152 58.8439
64 152 58.8212
65 152 58.8005
66 152 58.7471
67 152 58.7215
68 152 58.6858
69 152 58.6016
70 152 58.4857
71 152 58.3667
72 152 58.2146
73 152 58.0279
74 152 57.8178
75 152 57.5969
76 152 57.3582
77 152 57.1171
78 152 56.8684
79 152 56.3658
80 152 55.8569
81 152 55.2038
82 152 54.4664
83 152 53.7024
84 152 52.9466
85 152 52.1459
86 152 51.4754
87 152 50.7491
88 152 50.0845
89 152 48.5134
90 152 46.3262
91 152 42.243
92 152 41.1469
93 152 40.1454
94 152 39.0606
95 152 37.8888
96 152 36.6859
97 152 35.4719
98 152 34.2855
99 152 33.1724
100 152 32.058
101 152 31.1496
102 152 30.2775
103 152 29.4336
104 152 28.5979
105 152 27.7492
106 152 26.8994
107 152 26.1339
108 152 -3.14258
109 152 -3.14258
110 152 -3.14258
111 152 -3.14258
112 152 -3.14258
113 152 -3.14258
114 152 -3.14258
115 152 -3.14258
116 152 -3.14258
117 152 -3.14258
118 152 -3.14258
119 152 -3.14258
0 153 -3.14258
1 153 -3.14258
2 153 -3.14258
3 153 -3.14258
4 153 -3.14258
5 153 -3.14258
6 153 -3.14258
7 153 -3.14258
8 153 -3.14258
9 153 28.1504
10 153 32.2303
11 153 35.5334
12 153 38.0461
13 153 39.0929
14 153 40.6887
15 153 41.0233
16 153 41.1214
17 153 41.2617
18 153 41.4234
19 153 41.6341
20 153 41.889
21 153 42.2409
22 153 42.6363
23 153 43.0739
24 153 43.5501
25 153 44.0341
26 153 44.6976
27 153 45.3403
28 153 46.2248
29 153 47.1148
30 153 48.0885
31 153 49.0206
32 153 50.0294
33 153 50.881
34 153 51.6463
35 153 52.4218
36 153 53.0447
37 153 53.6861
38 153 54.2291
39 153 54.7896
40 153 55.3223
41 153 55.8487
42 153 56.3567
43 153 56.8558
44 153 57.0851
45 153 57.3132
46 153 57.5262
47 153 57.7251
48 153 57.9044
49 153 58.0989
50 153 58.3087
51 153 58.4674
52 153 58.6277
53 153 58.7992
54 153 58.8975
55 153 58.9797
56 153 58.9995
57 153 59.0104
58 153 59.0097
59 153 58.9991
60 153 58.9852
61 153 58.9637
62 153 58.9718
63 153 58.9679
64 153 58.9505
65 153 58.922
66 153 58.8645
67 153 58.8541
68 153 58.8311
69 153 58.7749
70 153 58.6796
71 153 58.5884
72 153 58.4383
73 153 58.2556
74 153 58.0563
75 153 57.8153
76 153 57.5778
77 153 57.3311
78 153 57.0828
79 153 56.7335
80 153 56.1702
81 153 55.4756
82 153 54.7232
83 153 53.9424
84 153 53.1687
85 153 52.4173
86 153 51.5497
87 153 50.7088
88 153 49.7652
89 153 48.2659
90 153 46.5099
91 153 43.8571
92 153 41.97
93 153 41.0091
94 153 39.9423
95 153 38.8402
96 153 37.6473
97 153 36.3879
98 153 35.1898
99 153 33.8646
100 153 32.6736
101 153 31.4744
102 153 30.5747
103 153 29.707
104 153 28.8443
105 153 27.9792
106 153 27.1365
107 153 26.3625
108 153 -3.14258
109 153 -3.14258
110 153 -3.14258
111 153 -3.14258
112 153 -3.14258
113 153 -3.14258
114 153 -3.14258
115 153 -3.14258
116 153 -3.14258
117 153 -3.14258
118 153 -3.14258
119 153 -3.14258
0 154 -3.14258
1 154 -3.14258
2 154 -3.14258
3 154 -3.14258
4 154 -3.14258
5 154 -3.14258
6 154 -3.14258
7 154 -3.14258
8 154 -3.14258
9 154 28.6283
10 154 31.3774
11 154 34.9699
12 154 37.6458
13 154 38.6496
14 154 40.2911
15 154 40.8231
16 154 41.0807
17 154 41.2804
18 154 41.5263
19 154 41.7482
20 154 42.0104
21 154 42.3708
22 154 42.7718
23 154 43.2132
24 154 43.6632
25 154 44.1678
26 154 44.7848
27 154 45.6405
28 154 46.4306
29 154 47.4167
30 154 48.3546
31 154 49.2571
32 154 50.2233
33 154 51.0019
34 154 51.7568
35 154 52.4932
36 154 53.1339
37 154 53.7992
38 154 54.4084
39 154 54.9905
40 154 55.5741
41 154 56.1178
42 154 56.6336
43 154 56.9947
44 154 57.2136
45 154 57.4422
46 154 57.6598
47 154 57.8336
48 154 58.0161
49 154 58.2044
50 154 58.3987
51 154 58.5886
52 154 58.7298
53 154 58.8847
54 154 58.9878
55 154 59.0698
56 154 59.0836
57 154 59.0853
58 154 59.0603
59 154 59.0502
60 154 59.0537
61 154 59.0684
62 154 59.0841
63 154 59.0873
64 154 59.0731
65 154 59.0612
66 154 59.035
67 154 58.9992
68 154 58.9855
69 154 58.9541
70 154 58.9064
71 154 58.8097
72 154 58.6323
73 154 58.4586
74 154 58.2551
75 154 58.0462
76 154 57.8003
77 154 57.5432
78 154 57.2799
79 154 56.9865
80 154 56.5004
81 154 55.7539
82 154 54.9875
83 154 54.1956
84 154 53.3874
85 154 52.5452
86 154 51.7072
87 154 50.7561
88 154 49.7121
89 154 48.272
90 154 46.7644
91 154 44.8527
92 154 43.1698
93 154 42.003
94 154 40.8067
95 154 39.6137
96 154 38.4881
97 154 37.3402
98 154 36.0323
99 154 34.822
100 154 33.6568
101 154 32.3282
102 154 31.0476
103 154 29.9755
104 154 29.0904
105 154 28.1965
106 154 27.2872
107 154 26.3735
108 154 -3.14258
109 154 -3.14258
110 154 -3.14258
111 154 -3.14258
112 154 -3.14258
113 154 -3.14258
114 154 -3.14258
115 154 -3.14258
116 154 -3.14258
117 154 -3.14258
118 154 -3.14258
119 154 -3.14258
0 155 -3.14258
1 155 -3.14258
2 155 -3.14258
3 155 -3.14258
4 155 -3.14258
5 155 -3.14258
6 155 -3.14258
7 155 -3.14258
8 155 -3.14258
9 155 29.5735
10 155 32.0596
11 155 35.4427
12 155 37.4471
13 155 38.4807
14 155 39.9399
15 155 40.5026
16 155 40.8505
17 155 41.1839
18 155 41.5347
19 155 41.8219
20 155 42.0953
21 155 42.4657
22 155 42.8725
23 155 43.2932
24 155 43.7838
25 155 44.309
26 155 44.8285
27 155 45.7172
28 155 46.8199
29 155 47.7393
30 155 48.6265
31 155 49.4753
32 155 50.4124
33 155 51.1465
34 155 51.8575
35 155 52.4989
36 155 53.2103
37 155 53.8825
38 155 54.5739
39 155 55.1995
40 155 55.7813
41 155 56.3479
42 155 56.8629
43 155 57.1079
44 155 57.3334
45 155 57.5685
46 155 57.7656
47 155 57.9561
48 155 58.1346
49 155 58.3165
50 155 58.4991
51 155 58.6706
52 155 58.8404
53 155 58.9652
54 155 59.071
55 155 59.153
56 155 59.1802
57 155 59.1798
58 155 59.1594
59 155 59.1524
60 155 59.1512
61 155 59.1812
62 155 59.2089
63 155 59.2193
64 155 59.2148
65 155 59.2145
66 155 59.2151
67 155 59.2019
68 155 59.1628
69 155 59.134
70 155 59.0807
71 155 59.0042
72 155 58.8693
73 155 58.6714
74 155 58.4614
75 155 58.2543
76 155 58.0324
77 155 57.7676
78 155 57.4867
79 155 57.1645
80 155 56.8106
81 155 56.0758
82 155 55.2771
83 155 54.4729
84 155 53.6911
85 155 52.7518
86 155 51.9368
87 155 50.9482
88 155 49.8562
89 155 48.4863
90 155 47.0888
91 155 45.658
92 155 44.0146
93 155 42.8552
94 155 41.7143
95 155 40.6292
96 155 39.5008
97 155 38.3237
98 155 36.9937
99 155 35.7098
100 155 34.4506
101 155 33.2384
102 155 31.85
103 155 30.4878
104 155 29.3797
105 155 28.4369
106 155 27.3506
107 155 26.0384
108 155 -3.14258
109 155 -3.14258
110 155 -3.14258
111 155 -3.14258
112 155 -3.14258
113 155 -3.14258
114 155 -3.14258
115 155 -3.14258
116 155 -3.14258
117 155 -3.14258
118 155 -3.14258
119 155 -3.14258
0 156 -3.14258
1 156 -3.14258
2 156 -3.14258
3 156 -3.14258
4 156 -3.14258
5 156 -3.14258
6 156 -3.14258
7 156 -3.14258
8 156 -3.14258
9 156 30.9117
10 156 31.7893
11 156 34.6424
12 156 37.2007
13 156 38.0598
14 156 39.3377
15 156 40.664
16 156 40.8438
17 156 41.0642
18 156 41.4076
19 156 41.7965
20 156 42.1093
21 156 42.4679
22 156 42.9029
23 156 43.3656
24 156 43.8579
25 156 44.3447
26 156 45.1095
27 156 45.934
28 156 47.084
29 156 47.9927
30 156 48.8917
31 156 49.7472
32 156 50.6244
33 156 51.3274
34 156 51.9877
35 156 52.6291
36 156 53.1898
37 156 54.0222
38 156 54.7149
39 156 55.3703
40 156 55.9577
41 156 56.5187
42 156 56.9482
43 156 57.2243
44 156 57.4689
45 156 57.6922
46 156 57.8907
47 156 58.0879
48 156 58.2667
49 156 58.4445
50 156 58.6155
51 156 58.7726
52 156 58.9273
53 156 59.0806
54 156 59.1194
55 156 59.2215
56 156 59.2586
57 156 59.2848
58 156 59.2725
59 156 59.2812
60 156 59.2886
61 156 59.2959
62 156 59.3202
63 156 59.3618
64 156 59.3732
65 156 59.4042
66 156 59.4191
67 156 59.4142
68 156 59.3954
69 156 59.3329
70 156 59.2752
71 156 59.1967
72 156 59.0902
73 156 58.8947
74 156 58.6902
75 156 58.4791
76 156 58.2444
77 156 57.9874
78 156 57.6748
79 156 57.3348
80 156 56.9947
81 156 56.386
82 156 55.58
83 156 54.7902
84 156 53.8553
85 156 53.0561
86 156 52.1744
87 156 51.2154
88 156 49.9494
89 156 48.7445
90 156 47.3944
91 156 46.1018
92 156 44.8892
93 156 43.5006
94 156 42.3919
95 156 41.3009
96 156 40.158
97 156 39.0081
98 156 37.8832
99 156 36.6795
100 156 35.2506
101 156 33.9722
102 156 32.7304
103 156 31.3146
104 156 29.9437
105 156 28.8207
106 156 27.8849
107 156 26.4441
108 156 -3.14258
109 156 -3.14258
110 156 -3.14258
111 156 -3.14258
112 156 -3.14258
113 156 -3.14258
114 156 -3.14258
115 156 -3.14258
116 156 -3.14258
117 156 -3.14258
118 156 -3.14258
119 156 -3.14258
0 157 -3.14258
1 157 -3.14258
2 157 -3.14258
3 157 -3.14258
4 157 -3.14258
5 157 -3.14258
6 157 -3.14258
7 157 -3.14258
8 157 -3.14258
9 157 33.2767
10 157 30.6275
11 157 32.3354
12 157 36.382
13 157 37.821
14 157 38.908
15 157 40.3246
16 157 40.7683
17 157 41.0193
18 157 41.2351
19 157 41.6567
20 157 42.0776
21 157 42.4679
22 157 42.9056
23 157 43.3989
24 157 43.8264
25 157 44.5764
26 157 45.3878
27 157 46.286
28 157 47.3402
29 157 48.2931
30 157 49.1513
31 157 49.9813
32 157 50.8039
33 157 51.5108
34 157 52.1635
35 157 52.7338
36 157 53.3571
37 157 54.0564
38 157 54.8388
39 157 55.4797
40 157 56.0978
41 157 56.6564
42 157 57.0333
43 157 57.2851
44 157 57.5873
45 157 57.8081
46 157 58.017
47 157 58.2179
48 157 58.3988
49 157 58.575
50 157 58.743
51 157 58.8997
52 157 59.0139
53 157 59.1338
54 157 59.2139
55 157 59.2828
56 157 59.3478
57 157 59.39
58 157 59.3874
59 157 59.4111
60 157 59.4349
61 157 59.4552
62 157 59.4661
63 157 59.5078
64 157 59.5705
65 157 59.6198
66 157 59.642
67 157 59.6426
68 157 59.6291
69 157 59.5548
70 157 59.4875
71 157 59.4029
72 157 59.2934
73 157 59.1079
74 157 58.9211
75 157 58.7134
76 157 58.4559
77 157 58.1756
78 157 57.859
79 157 57.5162
80 157 57.1539
81 157 56.7031
82 157 55.93
83 157 55.0549
84 157 54.2071
85 157 53.3264
86 157 52.4233
87 157 51.366
88 157 50.1286
89 157 48.9084
90 157 47.6859
91 157 46.4718
92 157 45.2757
93 157 44.1697
94 157 42.9929
95 157 41.9066
96 157 40.8081
97 157 39.6678
98 157 38.5037
99 157 37.328
100 157 36.1041
101 157 34.752
102 157 33.4622
103 157 32.2105
104 157 30.7957
105 157 29.4471
106 157 28.2539
107 157 26.7101
108 157 -3.14258
109 157 -3.14258
110 157 -3.14258
111 157 -3.14258
112 157 -3.14258
113 157 -3.14258
114 157 -3.14258
115 157 -3.14258
116 157 -3.14258
117 157 -3.14258
118 157 -3.14258
119 157 -3.14258
0 158 -3.14258
1 158 -3.14258
2 158 -3.14258
3 158 -3.14258
4 158 -3.14258
5 158 -3.14258
6 158 -3.14258
7 158 -3.14258
8 158 -3.14258
9 158 13.9105
10 158 25.0403
11 158 29.5934
12 158 34.5466
13 158 37.1722
14 158 38.527
15 158 39.9755
16 158 40.4957
17 158 40.9442
18 158 41.231
19 158 41.5117
20 158 41.8679
21 158 42.2992
22 158 42.8057
23 158 43.387
24 158 44.1579
25 158 44.9361
26 158 45.7699
27 158 46.6249
28 158 47.5487
29 158 48.5769
30 158 49.4032
31 158 50.1964
32 158 50.9885
33 158 51.662
34 158 52.2873
35 158 52.9224
36 158 53.5405
37 158 54.2338
38 158 54.8895
39 158 55.5644
40 158 56.1638
41 158 56.7456
42 158 57.112
43 158 57.4618
44 158 57.7102
45 158 57.9344
46 158 58.1381
47 158 58.3429
48 158 58.5313
49 158 58.7109
50 158 58.8849
51 158 59.0277
52 158 59.1635
53 158 59.2567
54 158 59.2646
55 158 59.3553
56 158 59.4364
57 158 59.4897
58 158 59.5087
59 158 59.5522
60 158 59.5935
61 158 59.6236
62 158 59.6425
63 158 59.712
64 158 59.8124
65 158 59.8618
66 158 59.8878
67 158 59.887
68 158 59.872
69 158 59.793
70 158 59.7181
71 158 59.6195
72 158 59.5118
73 158 59.3311
74 158 59.1482
75 158 58.9369
76 158 58.6549
77 158 58.3718
78 158 58.0565
79 158 57.7012
80 158 57.3345
81 158 56.9517
82 158 56.1392
83 158 55.4326
84 158 54.5281
85 158 53.6232
86 158 52.6461
87 158 51.4964
88 158 50.3169
89 158 49.1844
90 158 48.0579
91 158 46.8238
92 158 45.6602
93 158 44.5761
94 158 43.5668
95 158 42.4667
96 158 41.3267
97 158 40.1876
98 158 39.016
99 158 37.8452
100 158 36.6983
101 158 35.5406
102 158 34.2147
103 158 32.9355
104 158 31.6368
105 158 30.2925
106 158 28.9414
107 158 27.2212
108 158 -3.14258
109 158 -3.14258
110 158 -3.14258
111 158 -3.14258
112 158 -3.14258
113 158 -3.14258
114 158 -3.14258
115 158 -3.14258
116 158 -3.14258
117 158 -3.14258
118 158 -3.14258
119 158 -3.14258
0 159 -3.14258
1 159 -3.14258
2 159 -3.14258
3 159 -3.14258
4 159 -3.14258
5 159 -3.14258
6 159 -3.14258
7 159 -3.14258
8 159 -3.14258
9 159 -3.14258
10 159 23.2148
11 159 28.035
12 159 33.001
13 159 36.2517
14 159 37.8242
15 159 39.5228
16 159 40.2313
17 159 40.7589
18 159 41.2383
19 159 41.6575
20 159 42.1194
21 159 42.6339
22 159 43.2093
23 159 43.8592
24 159 44.5379
25 159 45.2984
26 159 46.0571
27 159 46.8307
28 159 47.7782
29 159 48.8064
30 159 49.6657
31 159 50.3999
32 159 51.0996
33 159 51.7574
34 159 52.4367
35 159 53.141
36 159 53.7544
37 159 54.4489
38 159 55.1202
39 159 55.7811
40 159 56.4095
41 159 56.9737
42 159 57.2748
43 159 57.5604
44 159 57.7972
45 159 58.0292
46 159 58.2663
47 159 58.4662
48 159 58.6663
49 159 58.8523
50 159 59.0127
51 159 59.1654
52 159 59.2742
53 159 59.3405
54 159 59.3156
55 159 59.4141
56 159 59.5259
57 159 59.6048
58 159 59.6498
59 159 59.7066
60 159 59.7647
61 159 59.8028
62 159 59.8792
63 159 59.9535
64 159 60.0535
65 159 60.128
66 159 60.1527
67 159 60.1541
68 159 60.1243
69 159 60.0273
70 159 59.9337
71 159 59.8396
72 159 59.7147
73 159 59.5616
74 159 59.3886
75 159 59.1597
76 159 58.8718
77 159 58.5752
78 159 58.2474
79 159 57.8979
80 159 57.5325
81 159 57.116
82 159 56.5411
83 159 55.724
84 159 54.8546
85 159 53.8969
86 159 52.841
87 159 51.6827
88 159 50.5678
89 159 49.442
90 159 48.2982
91 159 47.1237
92 159 46.0265
93 159 44.9699
94 159 43.9242
95 159 42.9041
96 159 41.8084
97 159 40.655
98 159 39.4932
99 159 38.3182
100 159 37.153
