ply
format ascii 1.0
comment Created by Open3D
element vertex 3119
property double x
property double y
property double z
end_header
109 161 -14.7618
110 161 -14.7618
111 161 -14.7618
112 161 -14.7618
113 161 -14.7618
114 161 -14.7618
115 161 -14.7618
116 161 -14.7618
117 161 -14.7618
118 161 -14.7618
119 161 -14.7618
0 162 -14.7618
1 162 -14.7618
2 162 -14.7618
3 162 -14.7618
4 162 -14.7618
5 162 -14.7618
6 162 -14.7618
7 162 -14.7618
8 162 -14.7618
9 162 -14.7618
10 162 -14.7618
11 162 -14.7618
12 162 26.5687
13 162 33.9813
14 162 37.949
15 162 40.6585
16 162 42.4156
17 162 43.7297
18 162 44.7369
19 162 45.4153
20 162 45.7826
21 162 46.1556
22 162 46.5151
23 162 46.8691
24 162 47.2188
25 162 47.5505
26 162 47.8789
27 162 48.1985
28 162 48.527
29 162 48.9282
30 162 49.3433
31 162 49.7381
32 162 50.1385
33 162 50.5355
34 162 50.9251
35 162 51.313
36 162 51.7082
37 162 52.1057
38 162 52.4968
39 162 52.892
40 162 53.2554
41 162 53.5998
42 162 53.9211
43 162 54.2255
44 162 54.5221
45 162 54.7885
46 162 55.0522
47 162 55.3087
48 162 55.5454
49 162 55.778
50 162 55.9901
51 162 56.1955
52 162 56.3798
53 162 56.5508
54 162 56.691
55 162 56.8062
56 162 56.901
57 162 56.9677
58 162 56.9957
59 162 56.9931
60 162 56.9528
61 162 56.8673
62 162 56.7549
63 162 56.6197
64 162 56.4546
65 162 56.2607
66 162 56.0404
67 162 55.7944
68 162 55.5204
69 162 55.2224
70 162 54.9039
71 162 54.5672
72 162 54.2049
73 162 53.8317
74 162 53.428
75 162 52.9948
76 162 52.5454
77 162 52.0781
78 162 51.5799
79 162 51.0708
80 162 50.5347
81 162 50.0018
82 162 49.4592
83 162 48.9019
84 162 48.3481
85 162 47.7771
86 162 47.2194
87 162 46.6469
88 162 46.0988
89 162 45.5665
90 162 44.8858
91 162 43.928
92 162 42.9533
93 162 41.9274
94 162 40.8847
95 162 39.777
96 162 38.5935
97 162 37.3572
98 162 36.0858
99 162 34.8059
100 162 33.4778
101 162 32.1527
102 162 30.8463
103 162 29.5451
104 162 28.2535
105 162 26.907
106 162 25.363
107 162 23.592
108 162 21.819
109 162 -14.7618
110 162 -14.7618
111 162 -14.7618
112 162 -14.7618
113 162 -14.7618
114 162 -14.7618
115 162 -14.7618
116 162 -14.7618
117 162 -14.7618
118 162 -14.7618
119 162 -14.7618
0 163 -14.7618
1 163 -14.7618
2 163 -14.7618
3 163 -14.7618
4 163 -14.7618
5 163 -14.7618
6 163 -14.7618
7 163 -14.7618
8 163 -14.7618
9 163 -14.7618
10 163 -14.7618
11 163 -14.7618
12 163 23.5709
13 163 32.7115
14 163 37.2397
15 163 40.2802
16 163 42.2289
17 163 43.6541
18 163 44.7949
19 163 45.5057
20 163 45.888
21 163 46.2718
22 163 46.6302
23 163 46.9976
24 163 47.3529
25 163 47.7101
26 163 48.0558
27 163 48.404
28 163 48.73
29 163 49.1193
30 163 49.5223
31 163 49.9247
32 163 50.316
33 163 50.711
34 163 51.1167
35 163 51.5248
36 163 51.9239
37 163 52.331
38 163 52.7384
39 163 53.1436
40 163 53.528
41 163 53.8825
42 163 54.2162
43 163 54.5403
44 163 54.8399
45 163 55.1187
46 163 55.3817
47 163 55.642
48 163 55.8991
49 163 56.1336
50 163 56.3682
51 163 56.5942
52 163 56.7994
53 163 56.9812
54 163 57.1365
55 163 57.273
56 163 57.3911
57 163 57.4633
58 163 57.5047
59 163 57.5051
60 163 57.4607
61 163 57.3724
62 163 57.2618
63 163 57.1144
64 163 56.9396
65 163 56.7367
66 163 56.5067
67 163 56.2478
68 163 55.9572
69 163 55.6442
70 163 55.3067
71 163 54.9469
72 163 54.5567
73 163 54.1599
74 163 53.7263
75 163 53.2705
76 163 52.8031
77 163 52.3032
78 163 51.7851
79 163 51.2565
80 163 50.7044
81 163 50.1491
82 163 49.5968
83 163 49.0241
84 163 48.4523
85 163 47.8833
86 163 47.3025
87 163 46.7263
88 163 46.1661
89 163 45.6194
90 163 44.9889
91 163 44.0288
92 163 43.0733
93 163 42.0572
94 163 40.9894
95 163 39.873
96 163 38.6911
97 163 37.4219
98 163 36.1175
99 163 34.8097
100 163 33.4539
101 163 32.0798
102 163 30.7058
103 163 29.3375
104 163 27.969
105 163 26.4508
106 163 24.5765
107 163 21.5532
108 163 -14.7618
109 163 -14.7618
110 163 -14.7618
111 163 -14.7618
112 163 -14.7618
113 163 -14.7618
114 163 -14.7618
115 163 -14.7618
116 163 -14.7618
117 163 -14.7618
118 163 -14.7618
119 163 -14.7618
0 164 -14.7618
1 164 -14.7618
2 164 -14.7618
3 164 -14.7618
4 164 -14.7618
5 164 -14.7618
6 164 -14.7618
7 164 -14.7618
8 164 -14.7618
9 164 -14.7618
10 164 -14.7618
11 164 -14.7618
12 164 -14.7618
13 164 30.963
14 164 36.415
15 164 39.7239
16 164 41.9172
17 164 43.532
18 164 44.8444
19 164 45.5713
20 164 46.0072
21 164 46.3664
22 164 46.7411
23 164 47.1167
24 164 47.4845
25 164 47.849
26 164 48.2098
27 164 48.5734
28 164 48.9258
29 164 49.2947
30 164 49.6936
31 164 50.0907
32 164 50.4928
33 164 50.8875
34 164 51.2988
35 164 51.7197
36 164 52.1288
37 164 52.5483
38 164 52.971
39 164 53.3947
40 164 53.7898
41 164 54.1601
42 164 54.5118
43 164 54.8436
44 164 55.163
45 164 55.4644
46 164 55.7324
47 164 55.9973
48 164 56.249
49 164 56.5126
50 164 56.7564
51 164 56.9969
52 164 57.2171
53 164 57.4207
54 164 57.6032
55 164 57.7652
56 164 57.8996
57 164 57.9919
58 164 58.0362
59 164 58.0434
60 164 58.0055
61 164 57.9161
62 164 57.7971
63 164 57.6492
64 164 57.4687
65 164 57.2558
66 164 57.0072
67 164 56.729
68 164 56.4244
69 164 56.0923
70 164 55.7249
71 164 55.3344
72 164 54.9236
73 164 54.4926
74 164 54.0319
75 164 53.5573
76 164 53.0508
77 164 52.5305
78 164 51.9865
79 164 51.4284
80 164 50.8685
81 164 50.293
82 164 49.7247
83 164 49.1436
84 164 48.5515
85 164 47.9694
86 164 47.377
87 164 46.7937
88 164 46.231
89 164 45.6785
90 164 45.0998
91 164 44.0975
92 164 43.1492
93 164 42.1352
94 164 41.0407
95 164 39.919
96 164 38.7184
97 164 37.4614
98 164 36.1132
99 164 34.7482
100 164 33.3468
101 164 31.9204
102 164 30.4828
103 164 29.0304
104 164 27.5556
105 164 25.9862
106 164 24.0489
107 164 20.0857
108 164 -14.7618
109 164 -14.7618
110 164 -14.7618
111 164 -14.7618
112 164 -14.7618
113 164 -14.7618
114 164 -14.7618
115 164 -14.7618
116 164 -14.7618
117 164 -14.7618
118 164 -14.7618
119 164 -14.7618
0 165 -14.7618
1 165 -14.7618
2 165 -14.7618
3 165 -14.7618
4 165 -14.7618
5 165 -14.7618
6 165 -14.7618
7 165 -14.7618
8 165 -14.7618
9 165 -14.7618
10 165 -14.7618
11 165 -14.7618
12 165 -14.7618
13 165 27.1827
14 165 35.2386
15 165 39.0817
16 165 41.5231
17 165 43.3757
18 165 44.7868
19 165 45.6002
20 165 46.094
21 165 46.467
22 165 46.8435
23 165 47.2134
24 165 47.5893
25 165 47.9657
26 165 48.3416
27 165 48.7136
28 165 49.0808
29 165 49.4518
30 165 49.849
31 165 50.2358
32 165 50.6415
33 165 51.0489
34 165 51.4725
35 165 51.898
36 165 52.3307
37 165 52.7652
38 165 53.2002
39 165 53.635
40 165 54.0507
41 165 54.4347
42 165 54.8065
43 165 55.1648
44 165 55.5019
45 165 55.8137
46 165 56.1052
47 165 56.3761
48 165 56.649
49 165 56.9144
50 165 57.1782
51 165 57.4329
52 165 57.6695
53 165 57.896
54 165 58.1072
55 165 58.296
56 165 58.4416
57 165 58.5449
58 165 58.6043
59 165 58.6145
60 165 58.5772
61 165 58.4918
62 165 58.3716
63 165 58.2193
64 165 58.0333
65 165 57.8034
66 165 57.5422
67 165 57.2463
68 165 56.9226
69 165 56.561
70 165 56.1653
71 165 55.7423
72 165 55.2959
73 165 54.8356
74 165 54.354
75 165 53.8422
76 165 53.3061
77 165 52.749
78 165 52.1791
79 165 51.6036
80 165 51.0239
81 165 50.4417
82 165 49.8518
83 165 49.2575
84 165 48.6646
85 165 48.0569
86 165 47.452
87 165 46.8566
88 165 46.2857
89 165 45.7292
90 165 45.1819
91 165 44.1497
92 165 43.1592
93 165 42.1344
94 165 41.0365
95 165 39.8963
96 165 38.6683
97 165 37.3863
98 165 36.0388
99 165 34.5925
100 165 33.1587
101 165 31.6655
102 165 30.1688
103 165 28.6285
104 165 27.1078
105 165 25.6013
106 165 24.0755
107 165 24.7389
108 165 -14.7618
109 165 -14.7618
110 165 -14.7618
111 165 -14.7618
112 165 -14.7618
113 165 -14.7618
114 165 -14.7618
115 165 -14.7618
116 165 -14.7618
117 165 -14.7618
118 165 -14.7618
119 165 -14.7618
0 166 -14.7618
1 166 -14.7618
2 166 -14.7618
3 166 -14.7618
4 166 -14.7618
5 166 -14.7618
6 166 -14.7618
7 166 -14.7618
8 166 -14.7618
9 166 -14.7618
10 166 -14.7618
11 166 -14.7618
12 166 -14.7618
13 166 -14.7618
14 166 31.9763
15 166 38.0165
16 166 40.935
17 166 43.1158
18 166 44.6781
19 166 45.6073
20 166 46.1417
21 166 46.557
22 166 46.9337
23 166 47.3148
24 166 47.6867
25 166 48.0703
26 166 48.4478
27 166 48.8374
28 166 49.2132
29 166 49.5856
30 166 49.9776
31 166 50.3753
32 166 50.7899
33 166 51.2083
34 166 51.6341
35 166 52.068
36 166 52.5142
37 166 52.9644
38 166 53.4174
39 166 53.8752
40 166 54.3176
41 166 54.7261
42 166 55.1202
43 166 55.4973
44 166 55.8525
45 166 56.1906
46 166 56.5002
47 166 56.7896
48 166 57.0696
49 166 57.3517
50 166 57.6289
51 166 57.9039
52 166 58.164
53 166 58.4132
54 166 58.6483
55 166 58.842
56 166 59.0086
57 166 59.1293
58 166 59.2044
59 166 59.2243
60 166 59.1935
61 166 59.112
62 166 58.995
63 166 58.8391
64 166 58.6381
65 166 58.4024
66 166 58.1258
67 166 57.8061
68 166 57.4484
69 166 57.0557
70 166 56.6269
71 166 56.1691
72 166 55.6919
73 166 55.1917
74 166 54.6706
75 166 54.1203
76 166 53.5537
77 166 52.9775
78 166 52.3814
79 166 51.7919
80 166 51.1925
81 166 50.5839
82 166 49.9679
83 166 49.3648
84 166 48.7555
85 166 48.1377
86 166 47.5252
87 166 46.924
88 166 46.3398
89 166 45.7857
90 166 45.2398
91 166 44.1785
92 166 43.1364
93 166 42.0928
94 166 40.9823
95 166 39.8084
96 166 38.5758
97 166 37.2506
98 166 35.857
99 166 34.4042
100 166 32.9148
101 166 31.3585
102 166 29.7575
103 166 28.1221
104 166 26.4481
105 166 24.7196
106 166 22.6901
107 166 -14.7618
108 166 -14.7618
109 166 -14.7618
110 166 -14.7618
111 166 -14.7618
112 166 -14.7618
113 166 -14.7618
114 166 -14.7618
115 166 -14.7618
116 166 -14.7618
117 166 -14.7618
118 166 -14.7618
119 166 -14.7618
0 167 -14.7618
1 167 -14.7618
2 167 -14.7618
3 167 -14.7618
4 167 -14.7618
5 167 -14.7618
6 167 -14.7618
7 167 -14.7618
8 167 -14.7618
9 167 -14.7618
10 167 -14.7618
11 167 -14.7618
12 167 -14.7618
13 167 -14.7618
14 167 -14.7618
15 167 35.1331
16 167 39.7926
17 167 42.5591
18 167 44.4378
19 167 45.5746
20 167 46.155
21 167 46.609
22 167 46.9992
23 167 47.3817
24 167 47.7752
25 167 48.1622
26 167 48.5585
27 167 48.9395
28 167 49.3221
29 167 49.7282
30 167 50.1206
31 167 50.5254
32 167 50.9476
33 167 51.3684
34 167 51.801
35 167 52.2479
36 167 52.7033
37 167 53.1666
38 167 53.6349
39 167 54.112
40 167 54.572
41 167 55.0168
42 167 55.4355
43 167 55.8377
44 167 56.2181
45 167 56.5787
46 167 56.922
47 167 57.2278
48 167 57.5175
49 167 57.8223
50 167 58.1114
51 167 58.4091
52 167 58.6923
53 167 58.9684
54 167 59.2122
55 167 59.4241
56 167 59.6089
57 167 59.7543
58 167 59.8452
59 167 59.8746
60 167 59.8547
61 167 59.7767
62 167 59.655
63 167 59.4917
64 167 59.2863
65 167 59.0379
66 167 58.7413
67 167 58.3981
68 167 58.0115
69 167 57.5882
70 167 57.1168
71 167 56.6282
72 167 56.1023
73 167 55.5561
74 167 55.0019
75 167 54.4219
76 167 53.812
77 167 53.21
78 167 52.5955
79 167 51.9742
80 167 51.354
81 167 50.7252
82 167 50.1008
83 167 49.4773
84 167 48.8426
85 167 48.213
86 167 47.5819
87 167 46.9864
88 167 46.3945
89 167 45.8124
90 167 45.259
91 167 44.161
92 167 43.0833
93 167 42.0079
94 167 40.8808
95 167 39.6654
96 167 38.4157
97 167 37.0378
98 167 35.6161
99 167 34.1107
100 167 32.5012
101 167 30.9204
102 167 29.2378
103 167 27.5083
104 167 25.6546
105 167 23.9632
106 167 21.8978
107 167 -14.7618
108 167 -14.7618
109 167 -14.7618
110 167 -14.7618
111 167 -14.7618
112 167 -14.7618
113 167 -14.7618
114 167 -14.7618
115 167 -14.7618
116 167 -14.7618
117 167 -14.7618
118 167 -14.7618
119 167 -14.7618
0 168 -14.7618
1 168 -14.7618
2 168 -14.7618
3 168 -14.7618
4 168 -14.7618
5 168 -14.7618
6 168 -14.7618
7 168 -14.7618
8 168 -14.7618
9 168 -14.7618
10 168 -14.7618
11 168 -14.7618
12 168 -14.7618
13 168 -14.7618
14 168 -14.7618
15 168 -14.7618
16 168 36.685
17 168 41.466
18 168 43.85
19 168 45.4219
20 168 46.0925
21 168 46.6008
22 168 47.0421
23 168 47.4343
24 168 47.8274
25 168 48.2305
26 168 48.6329
27 168 49.0292
28 168 49.4399
29 168 49.8543
30 168 50.2666
31 168 50.6791
32 168 51.0972
33 168 51.5387
34 168 51.9807
35 168 52.4381
36 168 52.8994
37 168 53.3731
38 168 53.862
39 168 54.361
40 168 54.8481
41 168 55.3152
42 168 55.757
43 168 56.1794
44 168 56.59
45 168 56.9793
46 168 57.3397
47 168 57.6817
48 168 58.0014
49 168 58.3131
50 168 58.636
51 168 58.9516
52 168 59.2599
53 168 59.5524
54 168 59.8167
55 168 60.0393
56 168 60.2428
57 168 60.4039
58 168 60.5131
59 168 60.5652
60 168 60.5557
61 168 60.4829
62 168 60.3642
63 168 60.1977
64 168 59.9867
65 168 59.7233
66 168 59.4057
67 168 59.0293
68 168 58.6107
69 168 58.144
70 168 57.6419
71 168 57.0994
72 168 56.5452
73 168 55.9306
74 168 55.3237
75 168 54.7044
76 168 54.0726
77 168 53.4412
78 168 52.7919
79 168 52.1501
80 168 51.5012
81 168 50.8489
82 168 50.2113
83 168 49.5661
84 168 48.9219
85 168 48.2891
86 168 47.6506
87 168 47.0331
88 168 46.439
89 168 45.8497
90 168 45.2597
91 168 44.1367
92 168 43.0065
93 168 41.8967
94 168 40.7334
95 168 39.488
96 168 38.1668
97 168 36.7668
98 168 35.2875
99 168 33.7317
100 168 32.0871
101 168 30.388
102 168 28.6401
103 168 26.7857
104 168 24.7737
105 168 22.2359
106 168 -14.7618
107 168 -14.7618
108 168 -14.7618
109 168 -14.7618
110 168 -14.7618
111 168 -14.7618
112 168 -14.7618
113 168 -14.7618
114 168 -14.7618
115 168 -14.7618
116 168 -14.7618
117 168 -14.7618
118 168 -14.7618
119 168 -14.7618
0 169 -14.7618
1 169 -14.7618
2 169 -14.7618
3 169 -14.7618
4 169 -14.7618
5 169 -14.7618
6 169 -14.7618
7 169 -14.7618
8 169 -14.7618
9 169 -14.7618
10 169 -14.7618
11 169 -14.7618
12 169 -14.7618
13 169 -14.7618
14 169 -14.7618
15 169 -14.7618
16 169 31.595
17 169 39.4322
18 169 42.8938
19 169 45
20 169 45.9346
21 169 46.5233
22 169 47.0336
23 169 47.457
24 169 47.8685
25 169 48.2897
26 169 48.702
27 169 49.1202
28 169 49.5418
29 169 49.9675
30 169 50.399
31 169 50.8374
32 169 51.2594
33 169 51.7034
34 169 52.1557
35 169 52.6194
36 169 53.1018
37 169 53.6028
38 169 54.0987
39 169 54.6121
40 169 55.1288
41 169 55.624
42 169 56.098
43 169 56.5432
44 169 56.9759
45 169 57.3894
46 169 57.7814
47 169 58.1572
48 169 58.5141
49 169 58.8483
50 169 59.1826
51 169 59.5285
52 169 59.8567
53 169 60.1636
54 169 60.4507
55 169 60.6953
56 169 60.9189
57 169 61.1033
58 169 61.2376
59 169 61.3072
60 169 61.3051
61 169 61.2434
62 169 61.132
63 169 60.9625
64 169 60.7381
65 169 60.4512
66 169 60.1054
67 169 59.7042
68 169 59.2505
69 169 58.7461
70 169 58.2024
71 169 57.6016
72 169 56.9774
73 169 56.323
74 169 55.6535
75 169 54.9939
76 169 54.332
77 169 53.6593
78 169 52.9822
79 169 52.312
80 169 51.6407
81 169 50.9831
82 169 50.3139
83 169 49.659
84 169 49.0065
85 169 48.3507
86 169 47.709
87 169 47.0885
88 169 46.4732
89 169 45.8625
90 169 45.2581
91 169 44.0822
92 169 42.9196
93 169 41.7415
94 169 40.5439
95 169 39.2878
96 169 37.9163
97 169 36.465
98 169 34.9344
99 169 33.3263
100 169 31.6091
101 169 29.8135
102 169 27.9767
103 169 26.0771
104 169 24.3325
105 169 22.5391
106 169 -14.7618
107 169 -14.7618
108 169 -14.7618
109 169 -14.7618
110 169 -14.7618
111 169 -14.7618
112 169 -14.7618
113 169 -14.7618
114 169 -14.7618
115 169 -14.7618
116 169 -14.7618
117 169 -14.7618
118 169 -14.7618
119 169 -14.7618
0 170 -14.7618
1 170 -14.7618
2 170 -14.7618
3 170 -14.7618
4 170 -14.7618
5 170 -14.7618
6 170 -14.7618
7 170 -14.7618
8 170 -14.7618
9 170 -14.7618
10 170 -14.7618
11 170 -14.7618
12 170 -14.7618
13 170 -14.7618
14 170 -14.7618
15 170 -14.7618
16 170 -14.7618
17 170 35.59
18 170 40.9789
19 170 44.0931
20 170 45.6722
21 170 46.3662
22 170 46.9733
23 170 47.4643
24 170 47.8818
25 170 48.329
26 170 48.7618
27 170 49.1976
28 170 49.6401
29 170 50.0864
30 170 50.5259
31 170 50.9788
32 170 51.4387
33 170 51.8814
34 170 52.3445
35 170 52.8172
36 170 53.3074
37 170 53.813
38 170 54.3306
39 170 54.8678
40 170 55.4115
41 170 55.932
42 170 56.4304
43 170 56.9121
44 170 57.3748
45 170 57.8223
46 170 58.2405
47 170 58.647
48 170 59.0365
49 170 59.4009
50 170 59.7661
51 170 60.1348
52 170 60.4898
53 170 60.8229
54 170 61.1299
55 170 61.4039
56 170 61.6466
57 170 61.8536
58 170 62.0009
59 170 62.094
60 170 62.1128
61 170 62.0634
62 170 61.9566
63 170 61.7829
64 170 61.5462
65 170 61.2437
66 170 60.8709
67 170 60.447
68 170 59.9499
69 170 59.3887
70 170 58.7896
71 170 58.1325
72 170 57.434
73 170 56.7174
74 170 55.994
75 170 55.2816
76 170 54.5764
77 170 53.8742
78 170 53.1671
79 170 52.4688
80 170 51.7726
81 170 51.0923
82 170 50.4077
83 170 49.7314
84 170 49.0616
85 170 48.4083
86 170 47.764
87 170 47.1204
88 170 46.496
89 170 45.8748
90 170 45.2451
91 170 44.0239
92 170 42.8025
93 170 41.5689
94 170 40.3453
95 170 39.0351
96 170 37.6374
97 170 36.0929
98 170 34.4969
99 170 32.8356
100 170 31.0597
101 170 29.1839
102 170 27.2482
103 170 25.2215
104 170 23.2749
105 170 21.0446
106 170 -14.7618
107 170 -14.7618
108 170 -14.7618
109 170 -14.7618
110 170 -14.7618
111 170 -14.7618
112 170 -14.7618
113 170 -14.7618
114 170 -14.7618
115 170 -14.7618
116 170 -14.7618
117 170 -14.7618
118 170 -14.7618
119 170 -14.7618
0 171 -14.7618
1 171 -14.7618
2 171 -14.7618
3 171 -14.7618
4 171 -14.7618
5 171 -14.7618
6 171 -14.7618
7 171 -14.7618
8 171 -14.7618
9 171 -14.7618
10 171 -14.7618
11 171 -14.7618
12 171 -14.7618
13 171 -14.7618
14 171 -14.7618
15 171 -14.7618
16 171 -14.7618
17 171 -14.7618
18 171 36.8323
19 171 42.0315
20 171 45.1961
21 171 46.1272
22 171 46.8496
23 171 47.4517
24 171 47.9132
25 171 48.335
26 171 48.8087
27 171 49.2708
28 171 49.7325
29 171 50.1874
30 171 50.6554
31 171 51.125
32 171 51.5904
33 171 52.0624
34 171 52.5415
35 171 53.015
36 171 53.5189
37 171 54.0373
38 171 54.5702
39 171 55.1219
40 171 55.6859
41 171 56.2285
42 171 56.7566
43 171 57.2668
44 171 57.7676
45 171 58.2442
46 171 58.7054
47 171 59.1501
48 171 59.5715
49 171 59.9867
50 171 60.3788
51 171 60.7804
52 171 61.1674
53 171 61.5226
54 171 61.8594
55 171 62.1515
56 171 62.4195
57 171 62.6489
58 171 62.8215
59 171 62.9356
60 171 62.9772
61 171 62.9367
62 171 62.833
63 171 62.6629
64 171 62.4157
65 171 62.098
66 171 61.7033
67 171 61.2352
68 171 60.6802
69 171 60.0705
70 171 59.3886
71 171 58.6664
72 171 57.9003
73 171 57.1214
74 171 56.3501
75 171 55.5828
76 171 54.8071
77 171 54.0657
78 171 53.3219
79 171 52.5917
80 171 51.884
81 171 51.1668
82 171 50.4755
83 171 49.7889
84 171 49.1063
85 171 48.4386
86 171 47.7878
87 171 47.1389
88 171 46.5012
89 171 45.8781
90 171 45.2415
91 171 43.9707
92 171 42.6959
93 171 41.4183
94 171 40.1296
95 171 38.7647
96 171 37.3224
97 171 35.7319
98 171 34.0649
99 171 32.2829
100 171 30.4155
101 171 28.4476
102 171 26.3829
103 171 24.3654
104 171 22.0196
105 171 -14.7618
106 171 -14.7618
107 171 -14.7618
108 171 -14.7618
109 171 -14.7618
110 171 -14.7618
111 171 -14.7618
112 171 -14.7618
113 171 -14.7618
114 171 -14.7618
115 171 -14.7618
116 171 -14.7618
117 171 -14.7618
118 171 -14.7618
119 171 -14.7618
0 172 -14.7618
1 172 -14.7618
2 172 -14.7618
3 172 -14.7618
4 172 -14.7618
5 172 -14.7618
6 172 -14.7618
7 172 -14.7618
8 172 -14.7618
9 172 -14.7618
10 172 -14.7618
11 172 -14.7618
12 172 -14.7618
13 172 -14.7618
14 172 -14.7618
15 172 -14.7618
16 172 -14.7618
17 172 -14.7618
18 172 -14.7618
19 172 36.8067
20 172 43.2448
21 172 45.6318
22 172 46.6017
23 172 47.3487
24 172 47.915
25 172 48.3809
26 172 48.8526
27 172 49.3259
28 172 49.8139
29 172 50.3012
30 172 50.7768
31 172 51.2586
32 172 51.7434
33 172 52.2352
34 172 52.7217
35 172 53.2177
36 172 53.7282
37 172 54.2625
38 172 54.8053
39 172 55.3781
40 172 55.9587
41 172 56.5298
42 172 57.0775
43 172 57.619
44 172 58.1491
45 172 58.6651
46 172 59.1664
47 172 59.6538
48 172 60.1266
49 172 60.5791
50 172 61.0201
51 172 61.4538
52 172 61.8696
53 172 62.2696
54 172 62.6366
55 172 62.9587
56 172 63.2518
57 172 63.5051
58 172 63.7004
59 172 63.839
60 172 63.8957
61 172 63.873
62 172 63.7881
63 172 63.6181
64 172 63.3551
65 172 63.0148
66 172 62.58
67 172 62.0672
68 172 61.4632
69 172 60.7885
70 172 60.0239
71 172 59.2148
72 172 58.3918
73 172 57.5401
74 172 56.702
75 172 55.8684
76 172 55.0434
77 172 54.2361
78 172 53.4597
79 172 52.6862
80 172 51.9393
81 172 51.2102
82 172 50.4937
83 172 49.8014
84 172 49.1175
85 172 48.4401
86 172 47.7825
87 172 47.134
88 172 46.4917
89 172 45.8544
90 172 45.193
91 172 43.9046
92 172 42.6079
93 172 41.2579
94 172 39.8915
95 172 38.4722
96 172 36.9573
97 172 35.3139
98 172 33.5874
99 172 31.6926
100 172 29.7255
101 172 27.6479
102 172 25.5057
103 172 23.4249
104 172 21.0471
105 172 -14.7618
106 172 -14.7618
107 172 -14.7618
108 172 -14.7618
109 172 -14.7618
110 172 -14.7618
111 172 -14.7618
112 172 -14.7618
113 172 -14.7618
114 172 -14.7618
115 172 -14.7618
116 172 -14.7618
117 172 -14.7618
118 172 -14.7618
119 172 -14.7618
0 173 -14.7618
1 173 -14.7618
2 173 -14.7618
3 173 -14.7618
4 173 -14.7618
5 173 -14.7618
6 173 -14.7618
7 173 -14.7618
8 173 -14.7618
9 173 -14.7618
10 173 -14.7618
11 173 -14.7618
12 173 -14.7618
13 173 -14.7618
14 173 -14.7618
15 173 -14.7618
16 173 -14.7618
17 173 -14.7618
18 173 -14.7618
19 173 -14.7618
20 173 39.1923
21 173 44.0378
22 173 46.091
23 173 47.098
24 173 47.8329
25 173 48.4162
26 173 48.9025
27 173 49.4004
28 173 49.911
29 173 50.4063
30 173 50.8984
31 173 51.3936
32 173 51.9047
33 173 52.3984
34 173 52.9045
35 173 53.4206
36 173 53.9372
37 173 54.4737
38 173 55.031
39 173 55.6171
40 173 56.2153
41 173 56.8084
42 173 57.3917
43 173 57.9643
44 173 58.52
45 173 59.0756
46 173 59.6167
47 173 60.1446
48 173 60.6595
49 173 61.1481
50 173 61.6368
51 173 62.1318
52 173 62.6043
53 173 63.0407
54 173 63.4563
55 173 63.8259
56 173 64.1453
57 173 64.4284
58 173 64.6475
59 173 64.8087
60 173 64.8959
61 173 64.8973
62 173 64.816
63 173 64.6398
64 173 64.3694
65 173 63.9938
66 173 63.5319
67 173 62.952
68 173 62.292
69 173 61.5417
70 173 60.7001
71 173 59.8218
72 173 58.9233
73 173 57.9984
74 173 57.0807
75 173 56.1738
76 173 55.2661
77 173 54.4097
78 173 53.5654
79 173 52.7516
80 173 51.9704
81 173 51.2212
82 173 50.4909
83 173 49.7794
84 173 49.0929
85 173 48.4195
86 173 47.756
87 173 47.1198
88 173 46.4799
89 173 45.8367
90 173 45.1402
91 173 43.8395
92 173 42.5047
93 173 41.1384
94 173 39.7157
95 173 38.248
96 173 36.6564
97 173 34.9253
98 173 33.0512
99 173 31.0669
100 173 28.9698
101 173 26.788
102 173 24.5502
103 173 22.0478
104 173 -14.7618
105 173 -14.7618
106 173 -14.7618
107 173 -14.7618
108 173 -14.7618
109 173 -14.7618
110 173 -14.7618
111 173 -14.7618
112 173 -14.7618
113 173 -14.7618
114 173 -14.7618
115 173 -14.7618
116 173 -14.7618
117 173 -14.7618
118 173 -14.7618
119 173 -14.7618
0 174 -14.7618
1 174 -14.7618
2 174 -14.7618
3 174 -14.7618
4 174 -14.7618
5 174 -14.7618
6 174 -14.7618
7 174 -14.7618
8 174 -14.7618
9 174 -14.7618
10 174 -14.7618
11 174 -14.7618
12 174 -14.7618
13 174 -14.7618
14 174 -14.7618
15 174 -14.7618
16 174 -14.7618
17 174 -14.7618
18 174 -14.7618
19 174 -14.7618
20 174 -14.7618
21 174 40.4205
22 174 45.0596
23 174 46.594
24 174 47.6101
25 174 48.3622
26 174 48.945
27 174 49.471
28 174 49.9879
29 174 50.5192
30 174 51.0269
31 174 51.53
32 174 52.0456
33 174 52.553
34 174 53.0801
35 174 53.6004
36 174 54.1332
37 174 54.6842
38 174 55.2458
39 174 55.8422
40 174 56.4668
41 174 57.0831
42 174 57.6876
43 174 58.2918
44 174 58.8852
45 174 59.4746
46 174 60.0495
47 174 60.6159
48 174 61.1619
49 174 61.7019
50 174 62.2394
51 174 62.7932
52 174 63.328
53 174 63.8203
54 174 64.2857
55 174 64.7021
56 174 65.0706
57 174 65.2383
58 174 65.2383
59 174 65.2383
60 174 65.2383
61 174 65.2383
62 174 65.2383
63 174 65.2383
64 174 65.2383
65 174 65.0658
66 174 64.5456
67 174 63.915
68 174 63.1751
69 174 62.3391
70 174 61.4229
71 174 60.4608
72 174 59.4771
73 174 58.4773
74 174 57.4685
75 174 56.4731
76 174 55.4947
77 174 54.5611
78 174 53.6491
79 174 52.7892
80 174 51.9633
81 174 51.1861
82 174 50.4422
83 174 49.7235
84 174 49.0319
85 174 48.3611
86 174 47.7094
87 174 47.0705
88 174 46.4483
89 174 45.8297
90 174 45.1183
91 174 43.8193
92 174 42.4753
93 174 41.0752
94 174 39.6178
95 174 38.0728
96 174 36.4036
97 174 34.5369
98 174 32.5217
99 174 30.3929
100 174 28.2091
101 174 25.9376
102 174 23.6209
103 174 21.0294
104 174 -14.7618
105 174 -14.7618
106 174 -14.7618
107 174 -14.7618
108 174 -14.7618
109 174 -14.7618
110 174 -14.7618
111 174 -14.7618
112 174 -14.7618
113 174 -14.7618
114 174 -14.7618
115 174 -14.7618
116 174 -14.7618
117 174 -14.7618
118 174 -14.7618
119 174 -14.7618
0 175 -14.7618
1 175 -14.7618
2 175 -14.7618
3 175 -14.7618
4 175 -14.7618
5 175 -14.7618
6 175 -14.7618
7 175 -14.7618
8 175 -14.7618
9 175 -14.7618
10 175 -14.7618
11 175 -14.7618
12 175 -14.7618
13 175 -14.7618
14 175 -14.7618
15 175 -14.7618
16 175 -14.7618
17 175 -14.7618
18 175 -14.7618
19 175 -14.7618
20 175 -14.7618
21 175 -14.7618
22 175 41.2191
23 175 45.7175
24 175 47.0537
25 175 48.0981
26 175 48.8886
27 175 49.5102
28 175 50.045
29 175 50.5941
30 175 51.1378
31 175 51.6615
32 175 52.1819
33 175 52.7067
34 175 53.2434
35 175 53.7784
36 175 54.324
37 175 54.8814
38 175 55.4633
39 175 56.0704
40 175 56.7059
41 175 57.3384
42 175 57.9735
43 175 58.6055
44 175 59.2378
45 175 59.8538
46 175 60.4633
47 175 61.0686
48 175 61.6552
49 175 62.2333
50 175 62.8333
51 175 63.4407
52 175 64.0344
53 175 64.5906
54 175 65.1131
55 175 65.2383
56 175 65.2383
57 175 65.2383
58 175 65.2383
59 175 65.2383
60 175 65.2383
61 175 65.2383
62 175 65.2383
63 175 65.2383
64 175 65.2383
65 175 65.2383
66 175 65.2383
67 175 64.9465
68 175 64.1361
69 175 63.1944
70 175 62.1946
71 175 61.1535
72 175 60.0671
73 175 58.9666
74 175 57.8658
75 175 56.7768
76 175 55.7084
77 175 54.6822
78 175 53.6975
79 175 52.7747
80 175 51.9072
81 175 51.0989
82 175 50.3383
83 175 49.6176
84 175 48.9324
85 175 48.2673
86 175 47.6375
87 175 47.018
88 175 46.4126
89 175 45.8074
90 175 45.1493
91 175 43.8418
92 175 42.4947
93 175 41.0535
94 175 39.5522
95 175 37.9366
96 175 36.1409
97 175 34.127
98 175 31.9681
99 175 29.715
100 175 27.3592
101 175 25.0276
102 175 21.8939
103 175 -14.7618
104 175 -14.7618
105 175 -14.7618
106 175 -14.7618
107 175 -14.7618
108 175 -14.7618
109 175 -14.7618
110 175 -14.7618
111 175 -14.7618
112 175 -14.7618
113 175 -14.7618
114 175 -14.7618
115 175 -14.7618
116 175 -14.7618
117 175 -14.7618
118 175 -14.7618
119 175 -14.7618
0 176 -14.7618
1 176 -14.7618
2 176 -14.7618
3 176 -14.7618
4 176 -14.7618
5 176 -14.7618
6 176 -14.7618
7 176 -14.7618
8 176 -14.7618
9 176 -14.7618
10 176 -14.7618
11 176 -14.7618
12 176 -14.7618
13 176 -14.7618
14 176 -14.7618
15 176 -14.7618
16 176 -14.7618
17 176 -14.7618
18 176 -14.7618
19 176 -14.7618
20 176 -14.7618
21 176 -14.7618
22 176 -14.7618
23 176 43.0393
24 176 46.2949
25 176 47.5861
26 176 48.6522
27 176 49.475
28 176 50.0953
29 176 50.6465
30 176 51.2043
31 176 51.7572
32 176 52.3031
33 176 52.8464
34 176 53.3965
35 176 53.9468
36 176 54.5091
37 176 55.0691
38 176 55.6547
39 176 56.2757
40 176 56.9147
41 176 57.5797
42 176 58.2413
43 176 58.8955
44 176 59.5558
45 176 60.204
46 176 60.8588
47 176 61.4955
48 176 62.1385
49 176 62.7718
50 176 63.4209
51 176 64.0793
52 176 64.7362
53 176 65.2383
54 176 65.2383
55 176 65.2383
56 176 65.2383
57 176 65.2383
58 176 65.2383
59 176 65.2383
60 176 65.2383
61 176 65.2383
62 176 65.2383
63 176 65.2383
64 176 65.2383
65 176 65.2383
66 176 65.2383
67 176 65.2383
68 176 65.175
69 176 64.158
70 176 63.061
71 176 61.909
72 176 60.7236
73 176 59.5044
74 176 58.2781
75 176 57.08
76 176 55.9101
77 176 54.7868
78 176 53.7219
79 176 52.733
80 176 51.809
81 176 50.9556
82 176 50.1896
83 176 49.4582
84 176 48.777
85 176 48.1361
86 176 47.52
87 176 46.9341
88 176 46.3761
89 176 45.8032
90 176 45.2014
91 176 43.9282
92 176 42.5617
93 176 41.0632
94 176 39.4948
95 176 37.7727
96 176 35.8525
97 176 33.69
98 176 31.3333
99 176 28.8733
100 176 26.5212
101 176 24.25
102 176 22.6102
103 176 -14.7618
104 176 -14.7618
105 176 -14.7618
106 176 -14.7618
107 176 -14.7618
108 176 -14.7618
109 176 -14.7618
110 176 -14.7618
111 176 -14.7618
112 176 -14.7618
113 176 -14.7618
114 176 -14.7618
115 176 -14.7618
116 176 -14.7618
117 176 -14.7618
118 176 -14.7618
119 176 -14.7618
0 177 -14.7618
1 177 -14.7618
2 177 -14.7618
3 177 -14.7618
4 177 -14.7618
5 177 -14.7618
6 177 -14.7618
7 177 -14.7618
8 177 -14.7618
9 177 -14.7618
10 177 -14.7618
11 177 -14.7618
12 177 -14.7618
13 177 -14.7618
14 177 -14.7618
15 177 -14.7618
16 177 -14.7618
17 177 -14.7618
18 177 -14.7618
19 177 -14.7618
20 177 -14.7618
21 177 -14.7618
22 177 -14.7618
23 177 -14.7618
24 177 43.1842
25 177 46.8839
26 177 48.1895
27 177 49.2453
28 177 50.0778
29 177 50.7267
30 177 51.2529
31 177 51.8218
32 177 52.3839
33 177 52.9493
34 177 53.5154
35 177 54.0929
36 177 54.665
37 177 55.2548
38 177 55.8556
39 177 56.4624
40 177 57.1232
41 177 57.8011
42 177 58.474
43 177 59.1509
44 177 59.8446
45 177 60.5372
46 177 61.2328
47 177 61.9192
48 177 62.6104
49 177 63.3022
50 177 64.0004
51 177 64.7125
52 177 65.2383
53 177 65.2383
54 177 65.2383
55 177 65.2383
56 177 65.2383
57 177 65.2383
58 177 65.2383
59 177 65.2383
60 177 65.2383
61 177 65.2383
62 177 65.2383
63 177 65.2383
64 177 65.2383
65 177 65.2383
66 177 65.2383
67 177 65.2383
68 177 65.2383
69 177 65.222
70 177 64.0185
71 177 62.7386
72 177 61.4182
73 177 60.0506
74 177 58.6949
75 177 57.3633
76 177 56.0749
77 177 54.8395
78 177 53.695
79 177 52.6325
80 177 51.6539
81 177 50.7685
82 177 49.9598
83 177 49.2356
84 177 48.583
85 177 47.9511
86 177 47.394
87 177 46.8633
88 177 46.3381
89 177 45.7916
90 177 45.2347
91 177 43.9675
92 177 42.6231
93 177 41.0739
94 177 39.4071
95 177 37.55
96 177 35.4723
97 177 33.1368
98 177 30.5471
99 177 27.8817
100 177 25.3912
101 177 22.3534
102 177 -14.7618
103 177 -14.7618
104 177 -14.7618
105 177 -14.7618
106 177 -14.7618
107 177 -14.7618
108 177 -14.7618
109 177 -14.7618
110 177 -14.7618
111 177 -14.7618
112 177 -14.7618
113 177 -14.7618
114 177 -14.7618
115 177 -14.7618
116 177 -14.7618
117 177 -14.7618
118 177 -14.7618
119 177 -14.7618
0 178 -14.7618
1 178 -14.7618
2 178 -14.7618
3 178 -14.7618
4 178 -14.7618
5 178 -14.7618
6 178 -14.7618
7 178 -14.7618
8 178 -14.7618
9 178 -14.7618
10 178 -14.7618
11 178 -14.7618
12 178 -14.7618
13 178 -14.7618
14 178 -14.7618
15 178 -14.7618
16 178 -14.7618
17 178 -14.7618
18 178 -14.7618
19 178 -14.7618
20 178 -14.7618
21 178 -14.7618
22 178 -14.7618
23 178 -14.7618
24 178 -14.7618
25 178 44.3199
26 178 47.4101
27 178 48.7882
28 178 49.7965
29 178 50.6653
30 178 51.2898
31 178 51.8366
32 178 52.43
33 178 53.0168
34 178 53.6071
35 178 54.1895
36 178 54.7803
37 178 55.3841
38 178 55.9931
39 178 56.6208
40 178 57.2723
41 178 57.951
42 178 58.6613
43 178 59.371
44 178 60.1099
45 178 60.841
46 178 61.5709
47 178 62.317
48 178 63.0549
49 178 63.8176
50 178 64.5666
51 178 65.2383
52 178 65.2383
53 178 65.2383
54 178 65.2383
55 178 65.2383
56 178 65.2383
57 178 65.2383
58 178 65.2383
59 178 65.2383
60 178 65.2383
61 178 65.2383
62 178 65.2383
63 178 65.2383
64 178 65.2383
65 178 65.2383
66 178 65.2383
67 178 65.2383
68 178 65.2383
69 178 65.2383
70 178 65.0845
71 178 63.6386
72 178 62.1656
73 178 60.636
74 178 59.1083
75 178 57.6189
76 178 56.1916
77 178 54.8416
78 178 53.5863
79 178 52.4541
80 178 51.4311
81 178 50.4974
82 178 49.6812
83 178 48.9525
84 178 48.2988
85 178 47.726
86 178 47.1897
87 178 46.6867
88 178 46.226
89 178 45.7429
90 178 45.2054
91 178 44.0105
92 178 42.6213
93 178 41.025
94 178 39.2504
95 178 37.2514
96 178 34.9778
97 178 32.3643
98 178 29.4235
99 178 26.2605
100 178 23.3278
101 178 19.9637
102 178 -14.7618
103 178 -14.7618
104 178 -14.7618
105 178 -14.7618
106 178 -14.7618
107 178 -14.7618
108 178 -14.7618
109 178 -14.7618
110 178 -14.7618
111 178 -14.7618
112 178 -14.7618
113 178 -14.7618
114 178 -14.7618
115 178 -14.7618
116 178 -14.7618
117 178 -14.7618
118 178 -14.7618
119 178 -14.7618
0 179 -14.7618
1 179 -14.7618
2 179 -14.7618
3 179 -14.7618
4 179 -14.7618
5 179 -14.7618
6 179 -14.7618
7 179 -14.7618
8 179 -14.7618
9 179 -14.7618
10 179 -14.7618
11 179 -14.7618
12 179 -14.7618
13 179 -14.7618
14 179 -14.7618
15 179 -14.7618
16 179 -14.7618
17 179 -14.7618
18 179 -14.7618
19 179 -14.7618
20 179 -14.7618
21 179 -14.7618
22 179 -14.7618
23 179 -14.7618
24 179 -14.7618
25 179 -14.7618
26 179 45.1981
27 179 48.0223
28 179 49.3979
29 179 50.3561
30 179 51.228
31 179 51.8328
32 179 52.4312
33 179 53.041
34 179 53.6542
35 179 54.2576
36 179 54.8608
37 179 55.48
38 179 56.1033
39 179 56.7301
40 179 57.3652
41 179 58.0614
42 179 58.801
43 179 59.5507
44 179 60.3357
45 179 61.1234
46 179 61.9075
47 179 62.711
48 179 63.5051
49 179 64.327
50 179 65.1348
51 179 65.2383
52 179 65.2383
53 179 65.2383
54 179 65.2383
55 179 65.2383
56 179 65.2383
57 179 65.2383
58 179 65.2383
59 179 65.2383
60 179 65.2383
61 179 65.2383
62 179 65.2383
63 179 65.2383
64 179 65.2383
65 179 65.2383
66 179 65.2383
67 179 65.2383
68 179 65.2383
69 179 65.2383
70 179 65.2383
71 179 64.6288
72 179 62.9424
73 179 61.214
74 179 59.4854
75 179 57.8207
76 179 56.2214
77 179 54.7392
78 179 53.3707
79 179 52.1618
80 179 51.0921
81 179 50.1375
82 179 49.3013
83 179 48.5897
84 179 47.951
85 179 47.3885
86 179 46.8905
87 179 46.4454
88 179 46.04
89 179 45.6368
90 179 45.1723
91 179 44.0957
92 179 42.6881
93 179 40.9319
94 179 38.995
95 179 36.7566
96 179 34.1659
97 179 31.3226
98 179 28.1476
99 179 22.947
100 179 -14.7618
101 179 -14.7618
102 179 -14.7618
103 179 -14.7618
104 179 -14.7618
105 179 -14.7618
106 179 -14.7618
107 179 -14.7618
108 179 -14.7618
109 179 -14.7618
110 179 -14.7618
111 179 -14.7618
112 179 -14.7618
113 179 -14.7618
114 179 -14.7618
115 179 -14.7618
116 179 -14.7618
117 179 -14.7618
118 179 -14.7618
119 179 -14.7618
0 180 -14.7618
1 180 -14.7618
2 180 -14.7618
3 180 -14.7618
4 180 -14.7618
5 180 -14.7618
6 180 -14.7618
7 180 -14.7618
8 180 -14.7618
9 180 -14.7618
10 180 -14.7618
11 180 -14.7618
12 180 -14.7618
13 180 -14.7618
14 180 -14.7618
15 180 -14.7618
16 180 -14.7618
17 180 -14.7618
18 180 -14.7618
19 180 -14.7618
20 180 -14.7618
21 180 -14.7618
22 180 -14.7618
23 180 -14.7618
24 180 -14.7618
25 180 -14.7618
26 180 -14.7618
27 180 46.4444
28 180 48.7081
29 180 49.9791
30 180 50.9292
31 180 51.7433
32 180 52.4187
33 180 53.0263
34 180 53.6549
35 180 54.29
36 180 54.9027
37 180 55.5388
38 180 56.1608
39 180 56.8007
40 180 57.4268
41 180 58.1274
42 180 58.9153
43 180 59.7142
44 180 60.5346
45 180 61.3729
46 180 62.233
47 180 63.0844
48 180 63.9553
49 180 64.8274
50 180 65.2383
51 180 65.2383
52 180 65.2383
53 180 65.2383
54 180 65.2383
55 180 65.2383
56 180 65.2383
57 180 65.2383
58 180 65.2383
59 180 65.2383
60 180 65.2383
61 180 65.2383
62 180 65.2383
63 180 65.2383
64 180 65.2383
65 180 65.2383
66 180 65.2383
67 180 65.2383
68 180 65.2383
69 180 65.2383
70 180 65.2383
71 180 65.2383
72 180 63.7382
73 180 61.7692
74 180 59.8035
75 180 57.9023
76 180 56.1103
77 180 54.4796
78 180 53.0045
79 180 51.7129
80 180 50.6011
81 180 49.6348
82 180 48.8184
83 180 48.1177
84 180 47.494
85 180 46.9619
86 180 46.5104
87 180 46.1057
88 180 45.8054
89 180 45.5325
90 180 45.2485
91 180 44.4405
92 180 42.8473
93 180 40.7876
94 180 38.445
95 180 35.9112
96 180 32.7864
97 180 29.6257
98 180 26.048
99 180 24.4109
100 180 -14.7618
101 180 -14.7618
102 180 -14.7618
103 180 -14.7618
104 180 -14.7618
105 180 -14.7618
106 180 -14.7618
107 180 -14.7618
108 180 -14.7618
109 180 -14.7618
110 180 -14.7618
111 180 -14.7618
112 180 -14.7618
113 180 -14.7618
114 180 -14.7618
115 180 -14.7618
116 180 -14.7618
117 180 -14.7618
118 180 -14.7618
119 180 -14.7618
0 181 -14.7618
1 181 -14.7618
2 181 -14.7618
3 181 -14.7618
4 181 -14.7618
5 181 -14.7618
6 181 -14.7618
7 181 -14.7618
8 181 -14.7618
9 181 -14.7618
10 181 -14.7618
11 181 -14.7618
12 181 -14.7618
13 181 -14.7618
14 181 -14.7618
15 181 -14.7618
16 181 -14.7618
17 181 -14.7618
18 181 -14.7618
19 181 -14.7618
20 181 -14.7618
21 181 -14.7618
22 181 -14.7618
23 181 -14.7618
24 181 -14.7618
25 181 -14.7618
26 181 -14.7618
27 181 -14.7618
28 181 -14.7618
29 181 49.165
30 181 50.4905
31 181 51.4074
32 181 52.3051
33 181 52.9982
34 181 53.6197
35 181 54.276
36 181 54.9085
37 181 55.5466
38 181 56.1846
39 181 56.8285
40 181 57.4646
41 181 58.1705
42 181 58.9823
43 181 59.8324
44 181 60.7272
45 181 61.633
46 181 62.5486
47 181 63.4549
48 181 64.3835
49 181 65.2383
50 181 65.2383
51 181 65.2383
52 181 65.2383
53 181 65.2383
54 181 65.2383
55 181 65.2383
56 181 65.2383
57 181 65.2383
58 181 65.2383
59 181 65.2383
60 181 65.2383
61 181 65.2383
62 181 65.2383
63 181 65.2383
64 181 65.2383
65 181 65.2383
66 181 65.2383
67 181 65.2383
68 181 65.2383
69 181 65.2383
70 181 65.2383
71 181 65.2383
72 181 64.5378
73 181 62.2643
74 181 60.021
75 181 57.8552
76 181 55.8178
77 181 53.9836
78 181 52.3689
79 181 51.0439
80 181 49.9343
81 181 48.9993
82 181 48.2158
83 181 47.5385
84 181 46.9357
85 181 46.3976
86 181 45.9718
87 181 45.6446
88 181 45.4712
89 181 45.3939
90 181 45.4157
91 181 45.193
92 181 43.1356
93 181 40.3265
94 181 37.1468
95 181 34.2182
96 181 28.9516
97 181 22.8322
98 181 -14.7618
99 181 -14.7618
100 181 -14.7618
101 181 -14.7618
102 181 -14.7618
103 181 -14.7618
104 181 -14.7618
105 181 -14.7618
106 181 -14.7618
107 181 -14.7618
108 181 -14.7618
109 181 -14.7618
110 181 -14.7618
111 181 -14.7618
112 181 -14.7618
113 181 -14.7618
114 181 -14.7618
115 181 -14.7618
116 181 -14.7618
117 181 -14.7618
118 181 -14.7618
119 181 -14.7618
0 182 -14.7618
1 182 -14.7618
2 182 -14.7618
3 182 -14.7618
4 182 -14.7618
5 182 -14.7618
6 182 -14.7618
7 182 -14.7618
8 182 -14.7618
9 182 -14.7618
10 182 -14.7618
11 182 -14.7618
12 182 -14.7618
13 182 -14.7618
14 182 -14.7618
15 182 -14.7618
16 182 -14.7618
17 182 -14.7618
18 182 -14.7618
19 182 -14.7618
20 182 -14.7618
21 182 -14.7618
22 182 -14.7618
23 182 -14.7618
24 182 -14.7618
25 182 -14.7618
26 182 -14.7618
27 182 -14.7618
28 182 -14.7618
29 182 -14.7618
30 182 49.6731
31 182 50.9239
32 182 51.9319
33 182 52.8601
34 182 53.5726
35 182 54.2012
36 182 54.8707
37 182 55.5305
38 182 56.1657
39 182 56.8174
40 182 57.4551
41 182 58.1477
42 182 58.9843
43 182 59.8959
44 182 60.8571
45 182 61.8474
46 182 62.8396
47 182 63.8016
48 182 64.7817
49 182 65.2383
50 182 65.2383
51 182 65.2383
52 182 65.2383
53 182 65.2383
54 182 65.2383
55 182 65.2383
56 182 65.2383
57 182 65.2383
58 182 65.2383
59 182 65.2383
60 182 65.2383
61 182 65.2383
62 182 65.2383
63 182 65.2383
64 182 65.2383
65 182 65.2383
66 182 65.2383
67 182 65.2383
68 182 65.2383
69 182 65.2383
70 182 65.2383
71 182 65.2383
72 182 65.2383
73 182 62.6646
74 182 60.0751
75 182 57.5435
76 182 55.2206
77 182 53.2039
78 182 51.4594
79 182 50.1
80 182 49.0322
81 182 48.1548
82 182 47.4246
83 182 46.7482
84 182 46.1672
85 182 45.6508
86 182 45.2111
87 182 44.6961
88 182 44.574
89 182 44.6646
90 182 45.3606
91 182 46.0131
92 182 42.8439
93 182 38.4763
94 182 31.4475
95 182 23.9219
96 182 -14.7618
97 182 -14.7618
98 182 -14.7618
99 182 -14.7618
100 182 -14.7618
101 182 -14.7618
102 182 -14.7618
103 182 -14.7618
104 182 -14.7618
105 182 -14.7618
106 182 -14.7618
107 182 -14.7618
108 182 -14.7618
109 182 -14.7618
110 182 -14.7618
111 182 -14.7618
112 182 -14.7618
113 182 -14.7618
114 182 -14.7618
115 182 -14.7618
116 182 -14.7618
117 182 -14.7618
118 182 -14.7618
119 182 -14.7618
0 183 -14.7618
1 183 -14.7618
2 183 -14.7618
3 183 -14.7618
4 183 -14.7618
5 183 -14.7618
6 183 -14.7618
7 183 -14.7618
8 183 -14.7618
9 183 -14.7618
10 183 -14.7618
11 183 -14.7618
12 183 -14.7618
13 183 -14.7618
14 183 -14.7618
15 183 -14.7618
16 183 -14.7618
17 183 -14.7618
18 183 -14.7618
19 183 -14.7618
20 183 -14.7618
21 183 -14.7618
22 183 -14.7618
23 183 -14.7618
24 183 -14.7618
25 183 -14.7618
26 183 -14.7618
27 183 -14.7618
28 183 -14.7618
29 183 -14.7618
30 183 -14.7618
31 183 49.803
32 183 51.5771
33 183 52.5576
34 183 53.4203
35 183 54.12
36 183 54.7853
37 183 55.4516
38 183 56.1041
39 183 56.7687
40 183 57.422
41 183 58.102
42 183 58.9476
43 183 59.9242
44 183 60.9591
45 183 62.0364
46 183 63.0924
47 183 64.1404
48 183 65.1633
49 183 65.2383
50 183 65.2383
51 183 65.2383
52 183 65.2383
53 183 65.2383
54 183 65.2383
55 183 65.2383
56 183 65.2383
57 183 65.2383
58 183 65.2383
59 183 65.2383
60 183 65.2383
61 183 65.2383
62 183 65.2383
63 183 65.2383
64 183 65.2383
65 183 65.2383
66 183 65.2383
67 183 65.2383
68 183 65.2383
69 183 65.2383
70 183 65.2383
71 183 65.2383
72 183 65.2383
73 183 62.9204
74 183 59.8937
75 183 56.9741
76 183 54.2861
77 183 51.9669
78 183 50.1791
79 183 48.8556
80 183 47.8959
81 183 47.1247
82 183 46.4425
83 183 45.7945
84 183 45.1944
85 183 44.2263
86 183 43.2096
87 183 42.6785
88 183 42.7403
89 183 42.3848
90 183 43.7644
91 183 48.3157
92 183 38.458
93 183 27.2175
94 183 -14.7618
95 183 -14.7618
96 183 -14.7618
97 183 -14.7618
98 183 -14.7618
99 183 -14.7618
100 183 -14.7618
101 183 -14.7618
102 183 -14.7618
103 183 -14.7618
104 183 -14.7618
105 183 -14.7618
106 183 -14.7618
107 183 -14.7618
108 183 -14.7618
109 183 -14.7618
110 183 -14.7618
111 183 -14.7618
112 183 -14.7618
113 183 -14.7618
114 183 -14.7618
115 183 -14.7618
116 183 -14.7618
117 183 -14.7618
118 183 -14.7618
119 183 -14.7618
0 184 -14.7618
1 184 -14.7618
2 184 -14.7618
3 184 -14.7618
4 184 -14.7618
5 184 -14.7618
6 184 -14.7618
7 184 -14.7618
8 184 -14.7618
9 184 -14.7618
10 184 -14.7618
11 184 -14.7618
12 184 -14.7618
13 184 -14.7618
14 184 -14.7618
15 184 -14.7618
16 184 -14.7618
17 184 -14.7618
18 184 -14.7618
19 184 -14.7618
20 184 -14.7618
21 184 -14.7618
22 184 -14.7618
23 184 -14.7618
24 184 -14.7618
25 184 -14.7618
26 184 -14.7618
27 184 -14.7618
28 184 -14.7618
29 184 -14.7618
30 184 -14.7618
31 184 46.7131
32 184 50.9
33 184 52.2413
34 184 53.1242
35 184 53.969
36 184 54.6788
37 184 55.3467
38 184 56.0221
39 184 56.7063
40 184 57.357
41 184 58.0458
42 184 58.8714
43 184 59.8875
44 184 61.0431
45 184 62.203
46 184 63.3304
47 184 64.4328
48 184 65.2383
49 184 65.2383
50 184 65.2383
51 184 65.2383
52 184 65.2383
53 184 65.2383
54 184 65.2383
55 184 65.2383
56 184 65.2383
57 184 65.2383
58 184 65.2383
59 184 65.2383
60 184 65.2383
61 184 65.2383
62 184 65.2383
63 184 65.2383
64 184 65.2383
65 184 65.2383
66 184 65.2383
67 184 65.2383
68 184 65.2383
69 184 65.2383
70 184 65.2383
71 184 65.2383
72 184 65.2383
73 184 63.0163
74 184 59.4909
75 184 56.026
76 184 52.8495
77 184 50.1931
78 184 48.3674
79 184 47.1927
80 184 46.4047
81 184 45.849
82 184 45.3744
83 184 44.2092
84 184 43.0312
85 184 42.0663
86 184 40.5633
87 184 39.4046
88 184 40.2162
89 184 36.0374
90 184 29.1615
91 184 16.6491
92 184 -14.7618
93 184 -14.7618
94 184 -14.7618
95 184 -14.7618
96 184 -14.7618
97 184 -14.7618
98 184 -14.7618
99 184 -14.7618
100 184 -14.7618
101 184 -14.7618
102 184 -14.7618
103 184 -14.7618
104 184 -14.7618
105 184 -14.7618
106 184 -14.7618
107 184 -14.7618
108 184 -14.7618
109 184 -14.7618
110 184 -14.7618
111 184 -14.7618
112 184 -14.7618
113 184 -14.7618
114 184 -14.7618
115 184 -14.7618
116 184 -14.7618
117 184 -14.7618
118 184 -14.7618
119 184 -14.7618
0 185 -14.7618
1 185 -14.7618
2 185 -14.7618
3 185 -14.7618
4 185 -14.7618
5 185 -14.7618
6 185 -14.7618
7 185 -14.7618
8 185 -14.7618
9 185 -14.7618
10 185 -14.7618
11 185 -14.7618
12 185 -14.7618
13 185 -14.7618
14 185 -14.7618
15 185 -14.7618
16 185 -14.7618
17 185 -14.7618
18 185 -14.7618
19 185 -14.7618
20 185 -14.7618
21 185 -14.7618
22 185 -14.7618
23 185 -14.7618
24 185 -14.7618
25 185 -14.7618
26 185 -14.7618
27 185 -14.7618
28 185 -14.7618
29 185 -14.7618
30 185 -14.7618
31 185 -14.7618
32 185 -14.7618
33 185 51.2002
34 185 52.6888
35 185 53.6403
36 185 54.4865
37 185 55.2146
38 185 55.8903
39 185 56.5878
40 185 57.2703
41 185 57.95
42 185 58.8022
43 185 59.8448
44 185 61.1145
45 185 62.3559
46 185 63.511
47 185 64.6631
48 185 65.2383
49 185 65.2383
50 185 65.2383
51 185 65.2383
52 185 65.2383
53 185 65.2383
54 185 65.2383
55 185 65.2383
56 185 65.2383
57 185 65.2383
58 185 65.2383
59 185 65.2383
60 185 65.2383
61 185 65.2383
62 185 65.2383
63 185 65.2383
64 185 65.2383
65 185 65.2383
66 185 65.2383
67 185 65.2383
68 185 65.2383
69 185 65.2383
70 185 65.2383
71 185 65.2383
72 185 65.2383
73 185 62.8915
74 185 58.8068
75 185 54.6899
76 185 50.7679
77 185 47.4938
78 185 45.7145
79 185 44.6301
80 185 43.8998
81 185 43.522
82 185 43.2498
83 185 41.5524
84 185 39.972
85 185 39.7022
86 185 35.7848
87 185 30.6667
88 185 22.3401
89 185 -14.7618
90 185 -14.7618
91 185 -14.7618
92 185 -14.7618
93 185 -14.7618
94 185 -14.7618
95 185 -14.7618
96 185 -14.7618
97 185 -14.7618
98 185 -14.7618
99 185 -14.7618
100 185 -14.7618
101 185 -14.7618
102 185 -14.7618
103 185 -14.7618
104 185 -14.7618
105 185 -14.7618
106 185 -14.7618
107 185 -14.7618
108 185 -14.7618
109 185 -14.7618
110 185 -14.7618
111 185 -14.7618
112 185 -14.7618
113 185 -14.7618
114 185 -14.7618
115 185 -14.7618
116 185 -14.7618
117 185 -14.7618
118 185 -14.7618
119 185 -14.7618
0 186 -14.7618
1 186 -14.7618
2 186 -14.7618
3 186 -14.7618
4 186 -14.7618
5 186 -14.7618
6 186 -14.7618
7 186 -14.7618
8 186 -14.7618
9 186 -14.7618
10 186 -14.7618
11 186 -14.7618
12 186 -14.7618
13 186 -14.7618
14 186 -14.7618
15 186 -14.7618
16 186 -14.7618
17 186 -14.7618
18 186 -14.7618
19 186 -14.7618
20 186 -14.7618
21 186 -14.7618
22 186 -14.7618
23 186 -14.7618
24 186 -14.7618
25 186 -14.7618
26 186 -14.7618
27 186 -14.7618
28 186 -14.7618
29 186 -14.7618
30 186 -14.7618
31 186 -14.7618
32 186 -14.7618
33 186 -14.7618
34 186 51.5591
35 186 53.1961
36 186 54.1954
37 186 55.0581
38 186 55.7613
39 186 56.4671
40 186 57.1646
41 186 57.8566
42 186 58.7274
43 186 59.8363
44 186 61.1518
45 186 62.4524
46 186 63.6608
47 186 64.8317
48 186 65.2383
49 186 65.2383
50 186 65.2383
51 186 65.2383
52 186 65.2383
53 186 65.2383
54 186 65.2383
55 186 65.2383
56 186 65.2383
57 186 65.2383
58 186 65.2383
59 186 65.2383
60 186 65.2383
61 186 65.2383
62 186 65.2383
63 186 65.2383
64 186 65.2383
65 186 65.2383
66 186 65.2383
67 186 65.2383
68 186 65.2383
69 186 65.2383
70 186 65.2383
71 186 65.2383
72 186 65.2383
73 186 62.7488
74 186 58.051
75 186 53.0444
76 186 47.7294
77 186 40.7474
78 186 38.3328
79 186 39.1605
80 186 39.488
81 186 40.0433
82 186 42.1895
83 186 37.4863
84 186 31.763
85 186 23.4414
86 186 -14.7618
87 186 -14.7618
88 186 -14.7618
89 186 -14.7618
90 186 -14.7618
91 186 -14.7618
92 186 -14.7618
93 186 -14.7618
94 186 -14.7618
95 186 -14.7618
96 186 -14.7618
97 186 -14.7618
98 186 -14.7618
99 186 -14.7618
100 186 -14.7618
101 186 -14.7618
102 186 -14.7618
103 186 -14.7618
104 186 -14.7618
105 186 -14.7618
106 186 -14.7618
107 186 -14.7618
108 186 -14.7618
109 186 -14.7618
110 186 -14.7618
111 186 -14.7618
112 186 -14.7618
113 186 -14.7618
114 186 -14.7618
115 186 -14.7618
116 186 -14.7618
117 186 -14.7618
118 186 -14.7618
119 186 -14.7618
0 187 -14.7618
1 187 -14.7618
2 187 -14.7618
3 187 -14.7618
4 187 -14.7618
5 187 -14.7618
6 187 -14.7618
7 187 -14.7618
8 187 -14.7618
9 187 -14.7618
10 187 -14.7618
11 187 -14.7618
12 187 -14.7618
13 187 -14.7618
14 187 -14.7618
15 187 -14.7618
16 187 -14.7618
17 187 -14.7618
18 187 -14.7618
19 187 -14.7618
20 187 -14.7618
21 187 -14.7618
22 187 -14.7618
23 187 -14.7618
24 187 -14.7618
25 187 -14.7618
26 187 -14.7618
27 187 -14.7618
28 187 -14.7618
29 187 -14.7618
30 187 -14.7618
31 187 -14.7618
32 187 -14.7618
33 187 -14.7618
34 187 -14.7618
35 187 51.5251
36 187 53.652
37 187 54.8278
38 187 55.6512
39 187 56.3131
40 187 57.0364
41 187 57.7396
42 187 58.6471
43 187 59.8131
44 187 61.1331
45 187 62.4908
46 187 63.761
47 187 64.9754
48 187 65.2383
49 187 65.2383
50 187 65.2383
51 187 65.2383
52 187 65.2383
53 187 65.2383
54 187 65.2383
55 187 65.2383
56 187 65.2383
57 187 65.2383
58 187 65.2383
59 187 65.2383
60 187 65.2383
61 187 65.2383
62 187 65.2383
63 187 65.2383
64 187 65.2383
65 187 65.2383
66 187 65.2383
67 187 65.2383
68 187 65.2383
69 187 65.2383
70 187 65.2383
71 187 65.2383
72 187 65.2383
73 187 62.6157
74 187 57.4817
75 187 51.2499
76 187 41.7957
77 187 24.1704
78 187 26.8598
79 187 33.3655
80 187 32.9199
81 187 29.6129
82 187 22.2673
83 187 -14.7618
84 187 -14.7618
85 187 -14.7618
86 187 -14.7618
87 187 -14.7618
88 187 -14.7618
89 187 -14.7618
90 187 -14.7618
91 187 -14.7618
92 187 -14.7618
93 187 -14.7618
94 187 -14.7618
95 187 -14.7618
96 187 -14.7618
97 187 -14.7618
98 187 -14.7618
99 187 -14.7618
100 187 -14.7618
101 187 -14.7618
102 187 -14.7618
103 187 -14.7618
104 187 -14.7618
105 187 -14.7618
106 187 -14.7618
107 187 -14.7618
